 -0.53410271694 0.0355224452899  0.275862913915 1759903407.41
-0.567408346912 0.0162265667458  0.275410404717 1759903407.43
   -0.60114302955 -0.00153340328697    0.274541144296 1759903407.45
 -0.634317747431 -0.0155658395713   0.272981497002 1759903407.47
 -0.666029579527 -0.0241271636203   0.270610027291 1759903407.49
 -0.695430897555 -0.0261161279384    0.26751644284 1759903407.51
 -0.721715693569 -0.0211898153603     0.2640066454 1759903407.53
  -0.744129371736 -0.00978699336175    0.260554136986 1759903407.55
 -0.761999799492 0.00694456122964   0.257709074379 1759903407.57
 -0.77478258164 0.0273072555055  0.255983857546 1759903407.59
-0.782112243878  0.049277134049  0.255737848585 1759903407.61
-0.783851607424 0.0707596614239  0.257084047621 1759903407.63
-0.780132577315 0.0898418180611  0.259837687202 1759903407.65
-0.771382445007  0.105006975394  0.263520668038 1759903407.67
-0.758330850809  0.115287205594  0.267426303131 1759903407.69
-0.741993694501  0.120339375904  0.270736484527 1759903407.71
-0.72363106784 0.120443764839 0.272670290291 1759903407.73
-0.704676639599  0.116434296068  0.272632949443 1759903407.75
-0.686636697502  0.109575915862  0.270331015162 1759903407.77
-0.67095959244 0.101406734788 0.265825946635 1759903407.79
-0.658881575118 0.0935615344628  0.259513320204 1759903407.81
-0.651262844779 0.0875911980811  0.252034505694 1759903407.83
-0.648436672078  0.084791251401  0.244145657046 1759903407.86
-0.650102056567 0.0860524302245  0.236579142794 1759903407.87
-0.655292822399 0.0917463393325  0.229931442985 1759903407.89
-0.662449611588  0.101658849729  0.224599619832 1759903407.91
-0.669604057674  0.114982212037   0.22077048992 1759903407.93
-0.674658363254  0.130373558201  0.218449633446 1759903407.96
-0.675714491877  0.146082200767   0.21750770909 1759903407.97
-0.671383779254  0.160140731971  0.217722231345 1759903407.99
-0.660998640792  0.170605660078  0.218802669595 1759903408.01
-0.644659375228  0.175823144717  0.220400479512 1759903408.04
-0.623082258754  0.174685823282  0.222117000714 1759903408.06
-0.597265199486  0.166839775472  0.223525751909 1759903408.07
-0.568042510943   0.15279893602  0.224219677705 1759903408.09
-0.535644743051  0.133930602658  0.223880793393 1759903408.11
-0.499397205938  0.112292106899  0.222355092303 1759903408.14
-0.457672125935 0.0903246840192  0.219705911256 1759903408.16
-0.408154730536 0.0704419407238   0.21621869922 1759903408.18
-0.348404333337 0.0545798492478  0.212340376248 1759903408.19
-0.276607342142 0.0437946709195  0.208554722973 1759903408.21
-0.192352991544 0.0379979014347  0.205216380185 1759903408.24
-0.0972345536491  0.0358998799027    0.20238368075 1759903408.26
0.00490006075675  0.0351971562157   0.199698651179 1759903408.28
  0.10815590179 0.0329888835867  0.196357183416 1759903408.29
 0.205263785183 0.0263545851992  0.191193332038 1759903408.31
 0.288617325536 0.0129824594592   0.18287301779 1759903408.34
   0.351484996607 -0.00828383579071    0.170161737599 1759903408.36
 0.389161575064 -0.037103460293   0.15220719587 1759903408.38
  0.399829797857 -0.0715866087364   0.128768672199 1759903408.39
 0.384960199052 -0.108556539268  0.100334103937 1759903408.41
  0.34917045144 -0.144080212198 0.0680916053039 1759903408.44
 0.299572834998 -0.174162193221 0.0337576076037 1759903408.46
    0.244735589083    -0.195460145344 -0.000701024841502 1759903408.48
  0.193450832618  -0.205876212197 -0.0333885279864 1759903408.49
  0.153526609327  -0.204906819949 -0.0627746407517 1759903408.51
  0.130801511978  -0.193686034268 -0.0879006279184 1759903408.53
 0.128524712883 -0.174721958231 -0.108459551054 1759903408.56
 0.147166590174  -0.15138789588 -0.124744783856 1759903408.58
 0.184643511763 -0.127277796944  -0.13749154996 1759903408.59
 0.236871988513 -0.105559679155 -0.147659000121 1759903408.61
  0.298524727691 -0.0884565630133  -0.156209801049 1759903408.63
  0.363848890455 -0.0769528314432  -0.163938640456 1759903408.66
  0.427421945419 -0.0707718645496  -0.171382763887 1759903408.68
 0.484753999114 -0.068610386217 -0.178822306176 1759903408.69
  0.532686197302 -0.0685604442428  -0.186352978404 1759903408.71
  0.569572740534 -0.0686138761155  -0.193995277415 1759903408.73
   0.59526281717 -0.0671339613692   -0.20179728747 1759903408.76
  0.610916367644 -0.0631953935657  -0.209893793504 1759903408.78
  0.618695937884 -0.0567308627689  -0.218500936816 1759903408.79
  0.621379779138 -0.0484700643294  -0.227848063823 1759903408.81
  0.621942176443 -0.0397030566699  -0.238069877161 1759903408.83
  0.623146980569 -0.0319345375467  -0.249095787214 1759903408.86
  0.627198461091 -0.0265127290869  -0.260575254674 1759903408.87
  0.635487841337 -0.0243147439458   -0.27186764619 1759903408.89
  0.648462739893 -0.0255521093696  -0.282106356619 1759903408.91
  0.665630388182 -0.0297308241408  -0.290325861415 1759903408.93
   0.68568597305 -0.0357666287781  -0.295623518899 1759903408.95
  0.706738352398 -0.0422249698942  -0.297320128109 1759903408.97
  0.726591022058 -0.0476321214597  -0.295085868706 1759903408.99
  0.743030342945 -0.0507924658718   -0.28900896355 1759903409.01
  0.754077334815 -0.0510478791956  -0.279598364923 1759903409.03
  0.758172269555 -0.0484274619252   -0.26772403119 1759903409.05
  0.754278456843 -0.0436572639319  -0.254506181555 1759903409.07
  0.741907697439 -0.0380267900328  -0.241168533705 1759903409.09
  0.721081054283 -0.0331372383707  -0.228872119334 1759903409.11
  0.692243792403 -0.0305800941644  -0.218547929242 1759903409.13
  0.656153848779 -0.0316089598362  -0.210748829714 1759903409.15
  0.613761276242 -0.0368695299868  -0.205542559206 1759903409.17
  0.566093783703 -0.0462422480424  -0.202465964504 1759903409.19
  0.514161900627 -0.0588314263772  -0.200554303471 1759903409.21
  0.458896352088 -0.0731069435031  -0.198448320799 1759903409.23
  0.401128555863 -0.0871746171878  -0.194567693659 1759903409.25
  0.341620555258 -0.0991244999779  -0.187325681595 1759903409.27
 0.281141611216 -0.107388487684 -0.175350305277 1759903409.29
 0.220575834886 -0.111034535754 -0.157675294279 1759903409.31
 0.161032231521 -0.109936459563 -0.133870566107 1759903409.33
  0.10392037133 -0.104783966478  -0.10409557857 1759903409.35
 0.0509556243965 -0.0969317518318 -0.0690754831433 1759903409.37
0.00406884874663 -0.0881212253226 -0.0300143987184 1759903409.39
-0.0347847888876 -0.0801352523374  0.0115319547418 1759903409.41
-0.0638980413255  -0.074458596381  0.0538021103554 1759903409.43
-0.0821198433409 -0.0720119009836  0.0949773350225 1759903409.45
-0.0891361497181 -0.0730072436516   0.133325176721 1759903409.47
-0.0856550301056 -0.0769445647452   0.167336211382 1759903409.49
-0.0734404199437 -0.0827381232423   0.195852204121 1759903409.51
-0.0551679140236 -0.0889370888402   0.218178314949 1759903409.53
-0.0341144795987 -0.0939886981242   0.234163788712 1759903409.55
-0.0137320091432 -0.0964880671899   0.244229774547 1759903409.57
0.00281778405224 -0.0953659683323   0.249324217319 1759903409.59
 0.0130799690964 -0.0899831249281   0.250794180164 1759903409.61
 0.0155985837275 -0.0801232668309   0.250183663936 1759903409.63
 0.0100377526635 -0.0659017774319   0.248984950535 1759903409.65
-0.00287616989837  -0.0476259880064    0.248387453253 1759903409.67
-0.0215625881127 -0.0256520081919   0.249074680713 1759903409.69
  -0.0438909873182 -0.000279322032241     0.251114330369 1759903409.71
-0.0675190994848  0.0282902655209   0.253969049528 1759903409.73
-0.0902085122973  0.0599237108415   0.256629697638 1759903409.75
-0.110077130757 0.0944731052305  0.257845341573 1759903409.77
-0.125767523027  0.131667343608  0.256402033807 1759903409.79
-0.136528431783  0.171014010975  0.251391619849 1759903409.81
-0.14221971651 0.211741297874 0.242414998423 1759903409.83
-0.143256834535  0.252797489204  0.229680017022 1759903409.85
-0.140510558723   0.29291059511  0.213977992011 1759903409.87
-0.135174209582  0.330697306507  0.196548711484 1759903409.89
-0.128607903384  0.364801606343  0.178865945966 1759903409.91
 -0.1221691964  0.39404012968 0.162389638365 1759903409.93
-0.117041914274   0.41753300666  0.148334882643 1759903409.95
-0.114078670219  0.434803452367  0.137501588387 1759903409.97
-0.113676246644   0.44583455522  0.130194272467 1759903409.99
-0.115705050733  0.451076216813  0.126241840129 1759903410.01
-0.119512000484  0.451399136018  0.125106297861 1759903410.03
-0.12400823698 0.447997260896 0.126051106462 1759903410.05
-0.127838627306  0.442246244541  0.128328102574 1759903410.07
-0.129611872758   0.43553293273  0.131339330617 1759903410.09
-0.128153349539  0.429078258286  0.134737589662 1759903410.11
-0.122733023709  0.423780974065  0.138445463052 1759903410.13
-0.113221563112  0.420110486153  0.142593275785 1759903410.15
-0.100140015936  0.418072375967  0.147396660034 1759903410.17
-0.0845900056803   0.417259638375   0.153009022397 1759903410.19
-0.0680772485185   0.416987090688   0.159389472101 1759903410.21
-0.0522643194787    0.41648837339   0.166221595817 1759903410.23
-0.0387023300298   0.415138510964   0.172904757158 1759903410.25
-0.0285920618184   0.412654608776   0.178621511473 1759903410.27
-0.0226142656139   0.409226448556   0.182467085615 1759903410.29
-0.0208509888996   0.405539120627   0.183613589931 1759903410.31
-0.022800667028  0.402670689858  0.181474863509 1759903410.33
-0.0274739019255    0.40187590469     0.1758380483 1759903410.35
-0.0335470308577    0.40429604783   0.166934370848 1759903410.37
-0.0395474738825   0.410657305992   0.155432689098 1759903410.39
-0.0440472149775   0.421028275727   0.142353269243 1759903410.41
-0.0458457265682   0.434697830733   0.128913958411 1759903410.43
-0.044127834593  0.450209217009  0.116334256778 1759903410.45
-0.0385834529051   0.465551143128   0.105632453272 1759903410.48
-0.0294753214009   0.478470349068   0.097454661173 1759903410.49
-0.0176404348433   0.486841232229  0.0919705710828 1759903410.51
-0.00441372703652    0.489013452536   0.0888588171127 1759903410.53
0.00852937619858   0.484061879026  0.0873869138585 1759903410.55
0.0194017241773   0.47188450324 0.0865706016997 1759903410.58
0.0265784343978  0.453128279961 0.0853799825201 1759903410.59
0.0288746494562  0.428962080685 0.0829495282389 1759903410.61
0.0257763494341    0.4007507233 0.0787486961244 1759903410.63
0.0175750296093  0.369706388976 0.0726796553001 1759903410.65
0.0053711683489  0.336598750986 0.0650858570926 1759903410.68
-0.00906417129584    0.301591709072   0.0566751286334 1759903410.7
-0.023551359869  0.264245505416 0.0483783881162 1759903410.71
-0.0358434320188   0.223684487594  0.0411759713776 1759903410.73
-0.0439849876613   0.178891678935  0.0359262697739 1759903410.75
-0.0466229125164   0.129060960157  0.0332266334155 1759903410.78
-0.0432123282686  0.0739234805461  0.0333266325279 1759903410.8
-0.0340818408723  0.0139703728328  0.0361017907463 1759903410.81
-0.0203497002139  -0.049482414442  0.0410846721411 1759903410.83
-0.00371106130776   -0.114405122377   0.0475418512384 1759903410.85
0.0138597634719 -0.178319089476 0.0545807942631 1759903410.88
0.0304340407281 -0.238659792036 0.0612697344066 1759903410.89
0.0444202993379 -0.293162444327 0.0667550435338 1759903410.91
 0.054772949397 -0.340192691846  0.070363027788 1759903410.93
0.0610872767042 -0.378959805751 0.0716756391907 1759903410.95
0.0635744793278 -0.409576391108 0.0705721681399 1759903410.98
0.0629338978663 -0.432960368608 0.0672319631376 1759903410.99
0.0601574236889 -0.450605653842 0.0620971332066 1759903411.01
0.0563101499439  -0.46427228481 0.0557992488871 1759903411.03
 0.052330799044 -0.475660455031 0.0490598738396 1759903411.05
0.0488864302878 -0.486133236038 0.0425801750074 1759903411.08
0.0463010195275  -0.49653960313  0.036938168466 1759903411.09
0.0445604132699 -0.507165830145 0.0325117649404 1759903411.11
0.0433810085183 -0.517814974251 0.0294410852116 1759903411.13
0.0423196111701 -0.527987355634 0.0276354577206 1759903411.15
0.0408985219305 -0.537115113534 0.0268212691294 1759903411.17
0.0387218690146 -0.544794763006 0.0266188601876 1759903411.19
0.0355641954728  -0.55096459497 0.0266317018615 1759903411.21
0.0314184082099 -0.555987635007 0.0265298687776 1759903411.23
0.0264967790132 -0.560622267164 0.0261122032166 1759903411.25
 0.021185880217 -0.565886798162 0.0253367570305 1759903411.27
0.0159639527313 -0.572846559208 0.0243158186043 1759903411.29
0.0112962779192 -0.582368980744 0.0232785331854 1759903411.31
0.00752927390229  -0.594900713198  0.0225095690943 1759903411.33
0.00480599404407  -0.610319195701  0.0222759876264 1759903411.35
0.00302353523053  -0.627898035244  0.0227565410614 1759903411.37
0.00184609424376  -0.646402357851  0.0239880398113 1759903411.39
0.000776480075428   -0.664301290979   0.0258416175989 1759903411.41
-0.000724335419418    -0.680056864312    0.0280369121566 1759903411.43
-0.00309243462601   -0.692429292172   0.0301943644268 1759903411.45
-0.00652200591791    -0.70073320523   0.0319164574057 1759903411.47
-0.0108652628721  -0.704989500944  0.0328803801205 1759903411.49
-0.0155993173823  -0.705940345405  0.0329200389773 1759903411.51
-0.0198766925743  -0.704924202961   0.032076238665 1759903411.53
-0.0226595031379  -0.703635644919  0.0306003023197 1759903411.55
-0.022917869061 -0.703814130845 0.0289070069803 1759903411.57
-0.0198552036385  -0.706913449199  0.0274851041857 1759903411.59
-0.0131121339793  -0.713799943011  0.0267850048456 1759903411.61
-0.00290133933101   -0.724517242854   0.0271105019229 1759903411.63
0.00996154031795   -0.73814316564  0.0285423051017 1759903411.65
0.0241435752013 -0.752754670905 0.0309146615146 1759903411.67
0.0379834928352 -0.765510758626 0.0338534807673 1759903411.69
0.0497472016433 -0.772859518778 0.0368682990325 1759903411.71
0.0578981281726 -0.770870317775 0.0394755116723 1759903411.73
0.0613279788095 -0.755680563873 0.0413209546537 1759903411.75
 0.059504255121 -0.724025705542 0.0422692017225 1759903411.77
0.0525115980079 -0.673792780663 0.0424356868217 1759903411.79
0.0409883122555 -0.604509393297 0.0421539320044 1759903411.81
0.0259805757483 -0.517662986317 0.0418889831499 1759903411.83
0.00875075669585  -0.416751215951  0.0421234129035 1759903411.85
-0.00941833995725   -0.306999560992   0.0432487264399 1759903411.87
-0.027384611543 -0.194744443386 0.0454908327852 1759903411.89
-0.0442457665982 -0.0865564766295  0.0488856146848 1759903411.91
-0.0593665762897  0.0117509206978  0.0533044534785 1759903411.93
-0.0723439285137  0.0960386348539  0.0585151708281 1759903411.95
-0.0829346797525   0.164494436925  0.0642552119959 1759903411.97
-0.0909777560694   0.217875737668  0.0702929383735 1759903411.99
-0.096338448175   0.25927925346 0.0764594036231 1759903412.01
-0.0988916905917   0.293473658291  0.0826446803216 1759903412.03
-0.0985461812278   0.325923619061  0.0887657868177 1759903412.05
-0.0952966589206   0.361697115046  0.0947231831845 1759903412.07
-0.0892817574511   0.404469098736   0.100366417365 1759903412.09
-0.0808231714323   0.455810801571   0.105485789081 1759903412.11
-0.0704293348656   0.514892984469   0.109837193936 1759903412.13
-0.0587602257639   0.578647910751   0.113194717173 1759903412.15
-0.0465631503776   0.642346636014   0.115414159396 1759903412.17
-0.0345969759744   0.700472714689   0.116484630834 1759903412.19
-0.0235624909609   0.747724382405   0.116547454294 1759903412.21
-0.014051285043  0.779962399637  0.115871851369 1759903412.23
-0.00651804365227    0.794940312672    0.114791799793 1759903412.25
-0.00127404221066    0.792701161346    0.113622291818 1759903412.27
0.00150550574592   0.775588184656   0.112580507996 1759903412.29
0.00176967049147   0.747883955707   0.111735494368 1759903412.31
-0.000416420593163     0.715151214618     0.111000063911 1759903412.33
-0.00487246733101    0.683391274981    0.110165142861 1759903412.35
-0.0112977436351   0.658157771568    0.10896479569 1759903412.37
-0.0192647746041   0.643763597573   0.107153413783 1759903412.39
-0.0282189330463   0.642698817971   0.104576095459 1759903412.41
-0.0374911342014   0.655340992393   0.101217649264 1759903412.43
-0.0463294737073    0.67999227205  0.0972222804605 1759903412.45
-0.0539524952546   0.713226661182  0.0928824967491 1759903412.47
-0.0596216199674   0.750483284687  0.0886008049669 1759903412.49
-0.0627240010533   0.786804357202  0.0848311177711 1759903412.51
-0.0628516365649   0.817595619547  0.0820087475087 1759903412.53
-0.0598600661826   0.839286186016  0.0804788483337 1759903412.55
-0.0538916799759   0.849785022488  0.0804334657065 1759903412.57
-0.0453547588645   0.848669685253  0.0818669515788 1759903412.59
-0.0348589379088   0.837092265354  0.0845580224649 1759903412.61
-0.023118721594  0.817437520256  0.088083680264 1759903412.63
-0.0108457586016   0.792808582743  0.0918655129917 1759903412.65
0.00134557276753   0.766438925319  0.0952432952626 1759903412.67
0.0129979634844  0.741132660565 0.0975657023145 1759903412.69
0.0238245732358  0.718820795748 0.0982846693683 1759903412.71
0.0336769487081  0.700294120068 0.0970391164902 1759903412.73
0.0424804583723  0.685140644185 0.0937152828776 1759903412.75
0.0501586189028  0.671882936482 0.0884742281858 1759903412.77
0.0565705109615  0.658282485514 0.0817415636711 1759903412.8
0.0614820633886  0.641756558093 0.0741595837543 1759903412.81
0.0645828745335  0.619838835325 0.0665070578822 1759903412.83
0.0655474344987  0.590609105753 0.0595964651517 1759903412.85
0.0641263737654  0.553020717138 0.0541620624555 1759903412.87
0.0602433904209  0.507068870765 0.0507545805984 1759903412.9
0.0540698075462  0.453768629623 0.0496589829881 1759903412.91
0.0460526671127  0.394946236304 0.0508497448602 1759903412.93
0.0368831495431  0.332884739184 0.0539929102939 1759903412.95
0.0274071465458  0.269896098336 0.0584961425394 1759903412.97
0.0184949020009  0.207908269595  0.063598759156 1759903413
 0.010897593289  0.148152205941 0.0684857834484 1759903413.01
0.0051226443663 0.0910107987296 0.0724056000868 1759903413.03
0.00135559404655  0.0360554737435  0.0747710304417 1759903413.05
-0.000554316165329   -0.0177442144286    0.0752282036429 1759903413.07
-0.00104232748488   -0.071687503056   0.0736848830701 1759903413.1
-0.000722734184222    -0.126957715851    0.0702977269857 1759903413.11
-0.000254326438781    -0.184264618731    0.0654244173494 1759903413.13
-0.00020680624104   -0.243584495544   0.0595507323139 1759903413.15
-0.00095624137541   -0.304048737532   0.0532045854121 1759903413.17
-0.00262875020229   -0.364004230543   0.0468695407576 1759903413.2
-0.00509865537515   -0.421238379436   0.0409099957083 1759903413.21
-0.00803404324773   -0.473332927745   0.0355192469032 1759903413.23
-0.0109725978933  -0.518087765772  0.0306996896276 1759903413.25
-0.0134062630675  -0.553941385737  0.0262809363276 1759903413.27
-0.0148555533307  -0.580310316768  0.0219762879709 1759903413.3
-0.014921984903 -0.597777305176 0.0174707453467 1759903413.31
-0.0133170694959  -0.608078428783  0.0125253791497 1759903413.33
-0.00987467553284   -0.613872243004  0.00707533246308 1759903413.35
-0.00455712151887   -0.618315485657  0.00129495599552 1759903413.37
 0.00253682190495   -0.624512060326 -0.00439358196218 1759903413.39
  0.0111600726266   -0.634935160555 -0.00938126369496 1759903413.41
 0.0209065091514  -0.650937512898 -0.0129989838133 1759903413.43
 0.0312108795621  -0.672456278606 -0.0146871903875 1759903413.45
 0.0413693823613  -0.697986632036 -0.0141692521961 1759903413.47
 0.0505876477604  -0.724846385583 -0.0115811967499 1759903413.49
  0.0580568663999   -0.749693170126 -0.00751424389023 1759903413.51
  0.0630516448089   -0.769198712394 -0.00294371746175 1759903413.53
  0.0650363941789   -0.780745025357 0.000954088167726 1759903413.55
  0.063762257238  -0.782995115959 0.00306353595777 1759903413.57
  0.059335009146   -0.77621073558 0.00260980212754 1759903413.59
   0.0522366340381    -0.762239449878 -0.000614374325388 1759903413.61
0.0432893270602 -0.744163592594 -0.006139927294 1759903413.63
 0.0335600736306  -0.725679348337 -0.0128694446046 1759903413.65
 0.0242158700816  -0.710337126583 -0.0192825944345 1759903413.67
 0.0163522079829  -0.700808055824 -0.0237591469999 1759903413.69
 0.0108272961882  -0.698336297195 -0.0249475053891 1759903413.71
0.00813754908952  -0.702493840812 -0.0220918533333 1759903413.73
0.00836334342862  -0.711284702272 -0.0152384033277 1759903413.75
  0.0111984498768   -0.721566835661 -0.00526936196707 1759903413.77
 0.0160560018887   -0.72969181635 0.00624540602788 1759903413.79
0.0222244568705 -0.732220020194 0.0173457682118 1759903413.81
0.0290343548437 -0.726561162723 0.0260608183328 1759903413.83
0.0359941745176  -0.71141636834 0.0307874918446 1759903413.85
 0.042861720699 -0.686949579038 0.0305897116644 1759903413.87
0.0496339585118 -0.654678378959 0.0253615257557 1759903413.89
0.0564586275558 -0.617131210758 0.0158305108365 1759903413.91
 0.0634901665762  -0.577356985782 0.00341247057977 1759903413.93
 0.0707263137232  -0.538388264902 -0.0100431188761 1759903413.95
 0.0778680998685   -0.50275154837 -0.0225609709318 1759903413.97
 0.0842442115589  -0.472094217376 -0.0323423855823 1759903413.99
0.0888305837924 -0.446966456453  -0.03801227026 1759903414.01
0.0903776007189  -0.42676686445 -0.038777188906 1759903414.03
 0.0876323249311  -0.409838429279 -0.0344800567304 1759903414.05
  0.079616921302  -0.393689071054 -0.0255556125787 1759903414.07
 0.0659044100356   -0.37530635739 -0.0129061023662 1759903414.09
 0.0468257653602  -0.351535431552 0.00227318982359 1759903414.11
0.0235510843809 -0.319488598148 0.0186851012425 1759903414.13
-0.00198941461939   -0.276951698016   0.0351075887698 1759903414.15
-0.0273461010686  -0.222746112305  0.0505331786764 1759903414.17
-0.0499180494464  -0.156998421237  0.0642571752684 1759903414.19
-0.0673830969686 -0.0812669791414  0.0759104760276 1759903414.21
-0.0781058052381 0.00151885984528  0.0854409227173 1759903414.23
-0.081438940193 0.0873316858105 0.0930533050698 1759903414.25
-0.077852769942   0.17152323414 0.0991221690167 1759903414.27
-0.0688598684744   0.249456207346   0.104093188566 1759903414.29
-0.0567438040374   0.317199179332   0.108388162234 1759903414.31
-0.0441400698146   0.372162598014   0.112326459538 1759903414.33
-0.0335492942267   0.413546194329   0.116072879199 1759903414.35
-0.0268792282725   0.442490204114   0.119618656355 1759903414.37
-0.0251082754572   0.461874390754   0.122798298082 1759903414.39
 -0.0281388491 0.475780982826    0.125339603 1759903414.41
-0.0348689035348   0.488714073763   0.126938080526 1759903414.43
-0.0434641926481   0.504728953683     0.1273414064 1759903414.45
-0.0517724719921   0.526652356075   0.126426175665 1759903414.47
-0.0577921217561   0.555558686154   0.124249287615 1759903414.49
-0.0600967804147   0.590610134253   0.121060386133 1759903414.51
-0.0581270652748   0.629284928134   0.117269617715 1759903414.53
-0.0522893660431    0.66793073962   0.113375214235 1759903414.55
-0.0438443613579   0.702512751606   0.109865607967 1759903414.57
-0.0346143153584   0.729394201564   0.107118006809 1759903414.59
-0.0265769747913   0.745995766698   0.105317298063 1759903414.61
-0.0214361197627   0.751221767074   0.104415076588 1759903414.63
-0.0202604343421   0.745600908027    0.10413954329 1759903414.65
-0.0232641193336   0.731150132631   0.104055323435 1759903414.67
-0.0297692601367   0.711018224152   0.103660794314 1759903414.69
-0.0383491571153   0.688993506132   0.102502003379 1759903414.71
-0.0471132452857   0.668966524131   0.100278618348 1759903414.73
-0.054066990696  0.654428239857 0.0969192312139 1759903414.75
-0.0574699939472   0.648063757715  0.0926100002636 1759903414.77
-0.0561231534095   0.651477647785    0.08777026066 1759903414.79
-0.0495372971192   0.665064586098  0.0829791474182 1759903414.81
-0.0379647375196    0.68802108365  0.0788664563735 1759903414.83
-0.022304626064  0.718481241601 0.0759875443359 1759903414.85
-0.00391634708472    0.753751143985   0.0747053732829 1759903414.87
0.0156121077557  0.790611585788 0.0751026496864 1759903414.89
0.0346933543902   0.82565636234 0.0769433030148 1759903414.91
0.0519297062748  0.855632721842 0.0796951040346 1759903414.93
0.0662397949998  0.877751620681 0.0826141741922 1759903414.95
0.0769164845285  0.889938338728 0.0848787590118 1759903414.97
0.0836232210089  0.890999385523 0.0857468479954 1759903414.99
0.0863449806552  0.880690104386 0.0847039683943 1759903415.01
 0.085314188493  0.859679032329 0.0815671059228 1759903415.03
0.0809315490245  0.829418673017 0.0765192994776 1759903415.05
0.0736974538529  0.791945161989 0.0700652284207 1759903415.07
0.0641630212748  0.749637891899 0.0629170429792 1759903415.09
0.0529027381666  0.704971877986 0.0558368757319 1759903415.11
0.0405046908549   0.66029011404 0.0494734637658 1759903415.13
0.0275704153349  0.617612751697 0.0442321809384 1759903415.15
0.0147148185234  0.578488802919 0.0402098655642 1759903415.17
0.00255740824004   0.543888431784  0.0372099468476 1759903415.19
-0.00830107232485    0.514132265036   0.0348333297219 1759903415.21
-0.0173181297038   0.488858280193  0.0326210861685 1759903415.23
-0.0240614604636   0.467033814356  0.0302109523792 1759903415.25
-0.0282645170264   0.447025576299  0.0274647522353 1759903415.27
-0.0298728313274   0.426739978309  0.0245301989354 1759903415.29
-0.0290668107681   0.403837490906  0.0218174170734 1759903415.31
-0.0262493773204   0.376009089878  0.0198940856254 1759903415.33
-0.0219939539977   0.341284140182  0.0193267709291 1759903415.35
-0.0169584095106   0.298322818218  0.0205124977328 1759903415.37
-0.0117804396739   0.246638104982  0.0235484286405 1759903415.39
-0.0069759332559   0.186696894011  0.0281771192672 1759903415.41
-0.00286191992838    0.119868606611   0.0338231970323 1759903415.43
0.000480190256663   0.0482207188059   0.0397111329615 1759903415.45
0.00319502577172 -0.0258029044578  0.0450311473422 1759903415.47
 0.0056015461067 -0.0997531968552  0.0491080347694 1759903415.49
0.00811144891626  -0.171512673516   0.051529047338 1759903415.51
0.0111341695499 -0.239520514315 0.0522006433228 1759903415.53
0.0149854193247 -0.302838538815 0.0513248700675 1759903415.55
0.0198140077109 -0.361055871636 0.0493077348788 1759903415.57
0.0255580709524 -0.414076490216 0.0466281612292 1759903415.59
0.0319374659825 -0.461866256231 0.0437034387854 1759903415.61
0.0384840754199 -0.504244281921 0.0407848018523 1759903415.63
0.0446061808852 -0.540786115872 0.0379067655834 1759903415.65
0.0496775044016 -0.570870088268  0.034899453387 1759903415.67
0.0531371278827 -0.593854774219  0.031458045595 1759903415.69
0.0545844235369 -0.609337037376  0.027250813075 1759903415.71
0.0538539451404  -0.61741631401 0.0220391538282 1759903415.73
0.0510587238332 -0.618887378672 0.0157808117807 1759903415.75
 0.0465956776666    -0.6153010641 0.00869128636998 1759903415.77
 0.0411125824646  -0.608864865072 0.00124762487953 1759903415.79
  0.0354409819932   -0.602193666843 -0.00586849268652 1759903415.81
 0.0305027874749  -0.597955094538 -0.0118780243055 1759903415.83
 0.0272002763176  -0.598476848063 -0.0160408293841 1759903415.85
0.0263006126745 -0.605391257488 -0.017793458635 1759903415.87
 0.0283276526837  -0.619384727972 -0.0168608219018 1759903415.89
 0.0334754358528  -0.640098762364 -0.0133193645187 1759903415.91
   0.041557965539   -0.666199221403 -0.00759879253599 1759903415.93
   0.0520068807519     -0.69559785982 -0.000421242008453 1759903415.95
  0.063921751785  -0.725782156047 0.00731094250568 1759903415.97
0.0761682985084 -0.754191857302 0.0146574585421 1759903415.99
  0.08751066962 -0.778576360542 0.0207853624854 1759903416.01
0.0967579343173 -0.797275710993 0.0250910367012 1759903416.03
  0.10290366873 -0.809386755687 0.0272788165592 1759903416.05
 0.105240673025  -0.81480018831 0.0273864996334 1759903416.07
 0.103438761269 -0.814118172334 0.0257589078103 1759903416.09
0.0975800166136 -0.808480489347 0.0229794818498 1759903416.11
0.0881509800932 -0.799336371931 0.0197747353587 1759903416.13
0.0759941083736 -0.788199348798 0.0169069571484 1759903416.15
0.0622222811789 -0.776416486464 0.0150680238926 1759903416.17
0.0481021746927 -0.764975297201 0.0147838150268 1759903416.19
0.0349165655027 -0.754364312341 0.0163367789998 1759903416.21
0.0238215271617 -0.744498209106 0.0197146807922 1759903416.23
0.0157190593657  -0.73471525907 0.0245953430792 1759903416.25
0.0111655102818 -0.723852418465  0.030377387411 1759903416.27
0.0103298560025 -0.710399360196 0.0362625811905 1759903416.29
0.0130051651619 -0.692724698662 0.0413853884941 1759903416.31
0.0186649408713 -0.669354449542 0.0449718850857 1759903416.33
0.0265470569499 -0.639266162542 0.0464980696562 1759903416.35
0.0357442991241 -0.602147138289 0.0458119358663 1759903416.37
 0.045283499762 -0.558558372232 0.0431876497319 1759903416.39
0.0541845428878 -0.509953079405 0.0392936988201 1759903416.41
0.0615030211847 -0.458521946498 0.0350766703275 1759903416.43
0.0663705141236 -0.406873485501 0.0315830725223 1759903416.45
0.0680488509695 -0.357598719767 0.0297575528184 1759903416.47
0.0660072577815  -0.31280351458  0.030262332884 1759903416.49
0.0600167767212 -0.273708231184 0.0333576154342 1759903416.51
0.0502408933397 -0.240406371894 0.0388674909081 1759903416.53
0.0372912416085 -0.211841688369 0.0462349515405 1759903416.55
0.0222169447422  -0.18601426839  0.054648967413 1759903416.57
0.00640725919057  -0.160373052455  0.0632115329241 1759903416.59
-0.00859173457582   -0.132309204901   0.0711063198778 1759903416.61
  -0.02131975448 -0.0996431539108  0.0777336466897 1759903416.63
-0.0306551818111 -0.0610032176183  0.0827872629827 1759903416.65
-0.0360187006273 -0.0160234786811  0.0862637535734 1759903416.67
-0.037474739667  0.034665523328 0.0884111282451 1759903416.69
-0.0357000267633  0.0896299525197  0.0896354870784 1759903416.71
-0.0318205169421   0.146945607433  0.0903909902099 1759903416.73
-0.0271512197465   0.204544963108  0.0910782228659 1759903416.75
-0.0228996523881   0.260515108103  0.0919706894768 1759903416.77
-0.0199055674432    0.31328790873  0.0931806213156 1759903416.79
-0.0184826586664   0.361702165328  0.0946655441263 1759903416.81
-0.0184024099903   0.404957790995  0.0962679708485 1759903416.83
-0.0190225388503   0.442512070046  0.0977739790314 1759903416.85
-0.0195235158604   0.473979485485  0.0989738424514 1759903416.87
-0.0191877318012   0.499087129474  0.0997098801418 1759903416.89
-0.0176448267554   0.517711358965  0.0999023708582 1759903416.91
-0.0150161002723   0.529986964188  0.0995516853109 1759903416.93
-0.0119183640729   0.536448584267  0.0987213620102 1759903416.95
-0.00932619253866    0.538145266311    0.097510929327 1759903416.97
-0.00833078001863    0.536668952239   0.0960280711586 1759903416.99
-0.00986184962238     0.53405689103   0.0943674677769 1759903417.01
-0.0144475770058   0.532561549637  0.0925994331245 1759903417.03
-0.0220743075645   0.534320344009  0.0907670480055 1759903417.05
-0.0321782839958   0.540990469144  0.0888876308273 1759903417.07
-0.0437654522157   0.553431522192  0.0869541825005 1759903417.09
-0.0556229331085   0.571514691082  0.0849348029153 1759903417.11
-0.0665648966922   0.594111934443  0.0827717659676 1759903417.13
-0.0756508192431   0.619277708237  0.0803850581851 1759903417.15
-0.0823257947366   0.644590007415  0.0776859036307 1759903417.17
-0.0864566681066   0.667579345079  0.0746031371301 1759903417.19
-0.088266755161   0.68615452086 0.0711197109777 1759903417.21
-0.0881973967254   0.698937907096  0.0673101038138 1759903417.23
-0.0867402216924   0.705448466059  0.0633647986131 1759903417.25
-0.0842871257661   0.706109410864  0.0595878903088 1759903417.27
-0.0810363793667   0.702097871974  0.0563594332561 1759903417.29
-0.0769759663987   0.695085536061  0.0540644182219 1759903417.31
-0.0719436009825   0.686935221494  0.0530022949404 1759903417.33
-0.0657420765811   0.679417032329  0.0533004769292 1759903417.35
-0.0582737974672   0.673992021608  0.0548582424337 1759903417.37
-0.0496531847777   0.671687284324   0.057341813792 1759903417.39
-0.0402612491448   0.673061330706   0.060238224465 1759903417.41
-0.0307214585024   0.678238812634   0.062958852206 1759903417.44
-0.0217966280799   0.686983081167  0.0649685588787 1759903417.46
-0.0142282237365   0.698774457141  0.0659079486377 1759903417.47
-0.0085568988247   0.712869749151  0.0656769155335 1759903417.49
-0.00497134897353    0.728331350614   0.0644572065722 1759903417.51
-0.00322865889868    0.744028831675   0.0626673613812 1759903417.54
-0.00267355828568    0.758629108235    0.060860512053 1759903417.56
-0.00236029904527    0.770599896797   0.0595892570633 1759903417.58
-0.00125543564232    0.778252426403    0.059268709339 1759903417.59
0.00152083298081   0.779841727374  0.0600679174019 1759903417.61
0.00646789153202   0.773727221882  0.0618525582497 1759903417.64
0.0135442252183  0.758576730729 0.0641906593202 1759903417.66
0.0221119997383  0.733579224208 0.0664206706868 1759903417.68
0.0310042965933   0.69862133832 0.0677695289942 1759903417.69
0.0387079528691  0.654383346205 0.0674990958904 1759903417.71
0.0436317392061  0.602322328156 0.0650539063112 1759903417.74
0.0444118619991  0.544531219741 0.0601824537209 1759903417.76
0.0401973964957  0.483487586344 0.0530084596544 1759903417.78
0.0308590544551   0.42172961956 0.0440371148469 1759903417.79
0.0170762575553  0.361513448787 0.0340928588503 1759903417.81
0.000278752139733    0.304511542731   0.0241980435538 1759903417.84
-0.0175532461913    0.25160551836  0.0154135016378 1759903417.86
-0.0341974418786   0.202809613575 0.00867015076029 1759903417.88
-0.0475497772068   0.157337097685 0.00462325989688 1759903417.89
-0.0559676820682   0.113795940503 0.00355689704626 1759903417.91
-0.0585298030319  0.0704774011196 0.00535586286041 1759903417.94
 -0.055163192006  0.0256863298481 0.00954812417846 1759903417.96
-0.0466172508828 -0.0219424672298  0.0154056277433 1759903417.98
-0.0342960173406 -0.0731913959331  0.0220791237673 1759903417.99
-0.0199888637989   -0.12810617489  0.0287364709774 1759903418.01
-0.00555796032604   -0.185957858853   0.0346754866911 1759903418.04
0.00735455734203  -0.245319363974   0.039391244668 1759903418.06
0.0175459633721 -0.304239960896 0.0425912733882 1759903418.08
0.0243651923662 -0.360490907615 0.0441665566184 1759903418.1
0.0277102154503 -0.411849598796 0.0441375344848 1759903418.11
0.0279283464642 -0.456387018283 0.0425991986188 1759903418.14
0.0256564654599 -0.492722956462 0.0396863673456 1759903418.16
0.0216467060502 -0.520215556977 0.0355702029938 1759903418.18
0.0166197940756 -0.539057184393 0.0304832427834 1759903418.2
0.0111748375788 -0.550258092462 0.0247573305957 1759903418.21
0.00576522210527  -0.555513054979   0.018851345012 1759903418.24
0.000730683517258   -0.556963529977   0.0133462395622 1759903418.26
-0.00363932394678   -0.556887551035  0.00889375646976 1759903418.28
-0.0070424817272  -0.557367791337 0.00611985412241 1759903418.3
-0.00912909688985    -0.55999928153  0.00550024290619 1759903418.31
-0.0095131394511  -0.565696044505 0.00723850708549 1759903418.34
-0.00782962522124   -0.574637775374   0.0111825132047 1759903418.36
-0.00382341893137   -0.586366736902   0.0168093408293 1759903418.38
0.00255627088306  -0.600009364892  0.0232931356796 1759903418.4
0.0110845806215  -0.61456660374 0.0296480913186 1759903418.41
0.0212367638657 -0.629200088755 0.0349169263634 1759903418.44
0.0322234437052 -0.643442723368 0.0383607823047 1759903418.46
0.0430828806402  -0.65728219671 0.0396041834979 1759903418.48
0.0528136437116 -0.671099891157 0.0386994491752 1759903418.49
0.0605215255944 -0.685486473499 0.0360956142191 1759903418.51
0.0655519233365  -0.70098827502 0.0325215128958 1759903418.53
0.0675830925664 -0.717856075191 0.0288141405511 1759903418.56
  0.06666449308 -0.735865845785  0.025735673244 1759903418.58
0.0631951089272 -0.754261154436 0.0238224722821 1759903418.59
0.0578471275407 -0.771835594599 0.0232978880807 1759903418.61
0.0514495968163 -0.787139134055 0.0240620638379 1759903418.63
0.0448536699396 -0.798762820484 0.0257521995076 1759903418.66
0.0388043804053 -0.805638318934 0.0278511847442 1759903418.67
0.0338421816175  -0.80728578423 0.0298142937185 1759903418.69
0.0302504821167 -0.803955289558 0.0311834626815 1759903418.71
0.0280546074533 -0.796629681168 0.0316653569337 1759903418.73
0.0270658721746 -0.786884691555 0.0311605975517 1759903418.75
0.0269549388799 -0.776629712922 0.0297441705405 1759903418.77
0.0273339640675 -0.767774872871 0.0276081886156 1759903418.79
0.0278284651855 -0.761882977494  0.024985509343 1759903418.81
0.0281267555723 -0.759865987083  0.022075130064 1759903418.83
0.0280044244658 -0.761775064113 0.0189879503184 1759903418.85
0.0273296906638 -0.766714208597  0.015725486499 1759903418.87
0.0260592791799 -0.772885638698 0.0121959118452 1759903418.89
 0.0242330571619  -0.777755868066 0.00826293643802 1759903418.91
0.0219709593188 -0.778318123141 0.0038151142778 1759903418.93
  0.0194706279853   -0.771419651805 -0.00116226719869 1759903418.95
  0.0170006823544   -0.754119806329 -0.00653216920264 1759903418.97
  0.014883306302  -0.724044098726 -0.0119842278971 1759903418.99
 0.0134611474166  -0.679698951655 -0.0170561644109 1759903419.01
 0.0130476208595  -0.620711381543 -0.0211978805281 1759903419.03
 0.0138661293751  -0.547959014073 -0.0238673020725 1759903419.05
 0.0159903145213  -0.463561647114 -0.0246378212186 1759903419.07
  0.019301116346  -0.370718797768 -0.0232916118723 1759903419.09
 0.0234750707632  -0.273398767755 -0.0198731134606 1759903419.11
 0.0280123076387  -0.175910667037 -0.0146837950772 1759903419.13
  0.0323042588287  -0.0824154424289 -0.00821248009034 1759903419.15
  0.0357321755165  0.00355177169847 -0.00101234438432 1759903419.17
 0.0377793819542  0.0794730611129 0.00644828469148 1759903419.19
0.0381340562454  0.144090719141  0.013923759482 1759903419.21
 0.036757483797  0.197465182007 0.0214784594821 1759903419.23
0.0338974437337  0.240843791032 0.0294929252642 1759903419.25
0.0300378949116  0.276368509169 0.0385751637494 1759903419.28
0.0257917294863  0.306676227372 0.0493862871605 1759903419.29
0.0217586541852  0.334459833068 0.0624134149099 1759903419.31
0.0183810738916   0.36206022778  0.077741763397 1759903419.33
0.0158342152699   0.39114970864 0.0948864428303 1759903419.35
0.0139809618387  0.422548017241  0.112738837068 1759903419.38
0.0124071220003  0.456187697915  0.129661849158 1759903419.39
0.010532158673 0.491219952263 0.143735666066 1759903419.41
0.0077697235711  0.526230840861  0.153117364733 1759903419.43
0.00369832732985   0.559524249457   0.156442636254 1759903419.45
-0.00180066060037    0.589423935054    0.153176198783 1759903419.48
-0.00847264224042    0.614550890359    0.143817542945 1759903419.49
-0.0157061943904   0.634041028451   0.129894112729 1759903419.51
-0.0226356621763   0.647678475247   0.113721311332 1759903419.53
-0.0283097099528   0.655929755243  0.0979670481378 1759903419.55
-0.0318899767978   0.659874115301    0.08511244673 1759903419.57
-0.0328361551692    0.66103661719  0.0769340347974 1759903419.59
-0.0310361213344   0.661144426198  0.0741349397684 1759903419.61
-0.0268517748924   0.661841872867  0.0762203437429 1759903419.63
-0.0210697870264   0.664412751816  0.0816526909429 1759903419.65
-0.0147669562129   0.669563767295  0.0882504713405 1759903419.68
-0.00911795361426    0.677316571191   0.0937307254576 1759903419.69
-0.00518530497037    0.687036235942   0.0962579560926 1759903419.71
-0.00373476579145    0.697594661483   0.0948617480441 1759903419.73
-0.00511258334679    0.707635692409   0.0896221402923 1759903419.75
-0.00920588259882    0.715883436739   0.0815849273877 1759903419.77
-0.0154877642852   0.721423626217  0.0724404623005 1759903419.79
-0.0231302802128   0.723893207249  0.0640593039185 1759903419.81
-0.0311560834433   0.723534611172  0.0580104716703 1759903419.83
-0.0385957162319   0.721103387183  0.0551858245269 1759903419.85
-0.0446219748145   0.717653453765  0.0556196636035 1759903419.87
-0.0486431155935   0.714254260883  0.0585369145644 1759903419.89
-0.0503489674257    0.71171061931  0.0626019980279 1759903419.91
-0.0497142310134    0.71035418535    0.06629026532 1759903419.93
-0.0469686915654   0.709956196726  0.0682775861768 1759903419.96
-0.0425445636592    0.70977987732  0.0677471777897 1759903419.98
-0.0370088428832   0.708756865486  0.0645432219124 1759903419.99
-0.0309862081538   0.705743855142  0.0591477101967 1759903420.01
-0.0250775408984   0.699799378865   0.052505643411 1759903420.03
-0.0197806371293   0.690418376155  0.0457602603743 1759903420.06
-0.0154221008854   0.677672410722  0.0399754377541 1759903420.08
-0.0121112408127   0.662222514234  0.0359150164314 1759903420.09
-0.00972666280468    0.645195441176   0.0339236829796 1759903420.11
-0.00794315678397    0.627938913932   0.0339207607637 1759903420.13
-0.00630018979014    0.611694295579   0.0354874248247 1759903420.16
-0.00430477546784    0.597243496726   0.0380076605011 1759903420.18
-0.001552696453   0.58459800679 0.0408175244778 1759903420.2
0.0021545828434  0.572798638615 0.0433250167515 1759903420.21
0.00672247000583   0.559882428915   0.045079619916 1759903420.23
0.0117276939162  0.543047894248 0.0457899753664 1759903420.26
0.0164490808037  0.519014556656 0.0453039793467 1759903420.28
0.0199668005933  0.484533433879 0.0435733402171 1759903420.3
0.0213176789091   0.43696976697 0.0406229782291 1759903420.31
0.0196803403676  0.374855312258 0.0365366343948 1759903420.33
 0.014554310566  0.298301409267 0.0314582660175 1759903420.36
0.00589486420477   0.209179655772  0.0255994482081 1759903420.38
-0.00582796369687    0.111014378466   0.0192398155371 1759903420.4
-0.0196628621843 0.00858487788347  0.0127114222456 1759903420.41
-0.0342999624576 -0.0927050792642 0.00636651726683 1759903420.43
  -0.048259786706   -0.187581883137 0.000537294877733 1759903420.45
-0.0601112196571   -0.27164268992 -0.0044987765683 1759903420.48
 -0.0686762582535   -0.341944367392 -0.00853599245619 1759903420.5
-0.0731842101372  -0.397333946489 -0.0114353313365 1759903420.51
-0.0733509308344  -0.438467156021 -0.0131029224047 1759903420.53
 -0.069375921941  -0.467524410484 -0.0134657910973 1759903420.55
-0.0618673559828  -0.487691478559 -0.0124608600949 1759903420.58
-0.0517183245755  -0.502513478897 -0.0100483855255 1759903420.6
  -0.03996385697  -0.515249090644 -0.0062507767991 1759903420.61
 -0.0276464430904   -0.528345004955 -0.00120578934937 1759903420.63
-0.0157093092647  -0.543121068962 0.00478612659541 1759903420.65
-0.00492512330393   -0.559710719524   0.0112432125249 1759903420.68
0.00414246217285   -0.57724891997   0.017529824506 1759903420.69
0.0111526908924 -0.594251811404 0.0229344866404 1759903420.71
0.0159854378753 -0.609097747536   0.02678722364 1759903420.73
0.0187273537276 -0.620503551761 0.0285909012041 1759903420.75
0.0196458757438 -0.627894204627 0.0281340180596 1759903420.78
  0.01914719073 -0.631587536247 0.0255540201391 1759903420.79
0.0177147521005 -0.632754338027 0.0213302420803 1759903420.81
0.0158300444062 -0.633162204373 0.0162014498543 1759903420.83
0.0138856118191 -0.634759030713 0.0110210361434 1759903420.85
 0.0121086019102  -0.639188934116 0.00657918752509 1759903420.88
 0.0105170566844  -0.647350746446 0.00343180664736 1759903420.89
0.00892786445119  -0.659102762939 0.00177740438825 1759903420.91
0.00702437537663  -0.673187953101 0.00141424260813 1759903420.93
0.00447585616852  -0.687407133907 0.00179214022935 1759903420.95
0.00108467139465   -0.69901340582 0.00215064823049 1759903420.97
-0.00307504386262   -0.705251462371  0.00171339137693 1759903420.99
 -0.00756772339586    -0.703931790723 -0.000107083469113 1759903421.01
 -0.0115903977942    -0.69392030711 -0.00354434351765 1759903421.03
-0.0140688304026  -0.675440790729 -0.0083955628122 1759903421.05
-0.0138497472791  -0.650126521974 -0.0140450293486 1759903421.07
-0.00995579252484   -0.620809832151  -0.0195915616904 1759903421.09
-0.00184709977124   -0.591092159012  -0.0240520535826 1759903421.11
 0.0103770788711  -0.564780708847 -0.0265943355377 1759903421.13
 0.0258963628279  -0.545301304553 -0.0267447596377 1759903421.15
 0.0432420520171  -0.535195696673 -0.0245208331871 1759903421.17
 0.0605230359679  -0.535787206511 -0.0204553641218 1759903421.19
 0.0757632522034  -0.547058583425 -0.0155024023089 1759903421.21
  0.087277776586  -0.567741122382 -0.0108419896052 1759903421.23
   0.094001359751   -0.595574968834 -0.00762487048193 1759903421.25
  0.0956923756184   -0.627674956453 -0.00671426477392 1759903421.27
  0.0929639871273   -0.660928056581 -0.00848499355713 1759903421.29
 0.0871343579246   -0.69235692986 -0.0127286915803 1759903421.31
 0.0799282697582  -0.719404438538 -0.0186894235796 1759903421.33
 0.0730943000853  -0.740118827264 -0.0252226273791 1759903421.35
0.0680187830647 -0.753240838255 -0.031040293148 1759903421.37
 0.0654175760859  -0.758207017863 -0.0349848150583 1759903421.39
 0.0651699263225  -0.755086847788 -0.0362683093723 1759903421.41
0.0663294708631 -0.744468034003 -0.034624280821 1759903421.43
 0.0673121623108  -0.727299350259 -0.0303409126985 1759903421.45
 0.0662269293591  -0.704698639799 -0.0241735685454 1759903421.47
 0.0612879898676  -0.677737578649 -0.0171610040025 1759903421.49
 0.0512315604982  -0.647224106529 -0.0103891153106 1759903421.51
   0.035656347242   -0.613514413634 -0.00475428508835 1759903421.53
  0.0152178355263   -0.576393534829 -0.00077516271734 1759903421.55
-0.00836942027218   -0.535061903454  0.00151085818485 1759903421.57
-0.0325329996306  -0.488252417541 0.00254879968284 1759903421.59
-0.0542208257702  -0.434480256086 0.00316821498665 1759903421.61
-0.0703958457784  -0.372400420918 0.00440923367472 1759903421.63
-0.0785628657378  -0.301221434271  0.0073101060094 1759903421.65
-0.0772338111961  -0.221102972456  0.0127002025367 1759903421.67
-0.0662447389907  -0.133454641598  0.0210391340991 1759903421.69
-0.0468614768099 -0.0410559627204  0.0323306490083 1759903421.71
-0.0216476275815  0.0520636093829  0.0461224139122 1759903421.73
0.0058881736961  0.141010538618 0.0615841315516 1759903421.75
0.0318086696267  0.220655793244 0.0776413185385 1759903421.77
0.0523419600911  0.286427461612 0.0931342322233 1759903421.79
0.0644539252248  0.335138150015  0.106972616396 1759903421.81
0.0663042553556  0.365686100193  0.118265744696 1759903421.83
0.0575118119974  0.379468056075  0.126419268741 1759903421.85
0.039188682158 0.380378401482 0.131200015176 1759903421.87
0.0137430503349  0.374340632051  0.132773104101 1759903421.89
-0.015509408729  0.368411583087  0.131712183546 1759903421.91
-0.0448557142274   0.369595610742   0.128976435728 1759903421.93
-0.0707317223786   0.383581128477   0.125842408014 1759903421.95
-0.0902183144297   0.413644633739   0.123779216661 1759903421.97
-0.101414866146  0.459946560342  0.124264421879 1759903421.99
-0.103640657662  0.519371813948  0.128553731669 1759903422.01
-0.097444670305  0.585961912275  0.137436333074 1759903422.03
-0.0844354307373   0.651869819612   0.151022746326 1759903422.05
-0.0669697238925   0.708668402164   0.168617394191 1759903422.07
-0.047757666537  0.748778799678  0.188719688188 1759903422.09
-0.0294496891827   0.766766231809   0.209175401335 1759903422.11
-0.0142684449433   0.760278225583   0.227468645313 1759903422.13
-0.0037367728995   0.730466424635   0.241111305053 1759903422.15
0.00146632737705     0.6818252142   0.248060087327 1759903422.17
0.00151279911867   0.621482481627    0.24707924766 1759903422.19
-0.00269096064937    0.558072719379     0.23797399304 1759903422.21
-0.00971390724202    0.500393822381    0.221644719011 1759903422.23
-0.017863915147  0.456083093882  0.199949511251 1759903422.25
-0.0254635429656   0.430538167908   0.175402228944 1759903422.27
-0.0310997053631   0.426256360565   0.150766231595 1759903422.29
-0.0338155725688   0.442682052538   0.128622209138 1759903422.31
-0.0332218665029   0.476553902954   0.110989535632 1759903422.33
-0.0295153086109   0.522652771695  0.0990652971998 1759903422.35
