 0.305454628727088 -0.182256312584165 -0.236315767014872 0.427042193966131 1759903398.61422
 0.314317061462996 -0.214049828599278 -0.258352092528439 0.459737259708125 1759903398.63476
 0.387882484618768 -0.167750859441568 -0.271401008235069 0.50224663263025 1759903398.6561
 0.455390698484323 -0.117268237108444 -0.259470450790487 0.537082342414998 1759903398.67524
  0.434885708880556 -0.0539835732680435  -0.232693160369995 0.496171253554966 1759903398.69459
   0.47229284597202 -0.0353055663334406   -0.23655599267441 0.529401315677106 1759903398.71441
  0.476712576347067 -0.0680271259402104  -0.251797547655021 0.543400934224653 1759903398.73461
  0.511804936046967 -0.0813801944019198  -0.278687518438852 0.588416316511141 1759903398.7552
  0.588582352942676 -0.0698649524153905  -0.283386266759489 0.656976463778895 1759903398.77506
  0.556182870271292 -0.0252177083323049  -0.275465456610146 0.621173515036002 1759903398.79438
  0.569352245106744 -0.0344062287899389  -0.291290358135876 0.640465331091826 1759903398.814
   0.54260423620709 -0.0767954031200901  -0.314476979775129 0.631832780012831 1759903398.83439
  0.576887198417731 -0.0744356423322305  -0.344573707536107 0.676069925727249 1759903398.85467
 0.654510023308252 -0.112661649120052 -0.337604907376237 0.745018852968122 1759903398.87471
  0.668857687342856 -0.0668446636047121  -0.347217077217802 0.756570230501923 1759903398.89432
  0.688355385621552 -0.0860380167115593  -0.342175914270196 0.773511495415872 1759903398.91428
 0.650187518477365 -0.128512215779508 -0.312929565767614 0.73292844938631 1759903398.93431
 0.677784404347678 -0.102341338624336  -0.32503791525929 0.758627111777889 1759903398.95451
  0.723524650527992 -0.0547721434332609  -0.331629488739816 0.797788208373475 1759903398.9747
  0.786276097036644 -0.0163551102537009  -0.333775357186189 0.854343946819638 1759903398.99443
   0.776688625135913 -0.00116953733083014   -0.338849331251164 0.847387430590308 1759903399.01433
  0.731626792482577 -0.0524811512384564  -0.310271304509019 0.796429731436105 1759903399.03446
  0.763213843953466 -0.0335689719348322  -0.336072111565889 0.834605722273303 1759903399.05445
  0.864140627365961 -0.0406162163835378  -0.291321430594027 0.912829051258286 1759903399.07473
  0.989781283154561 0.00966404549807413  -0.297694072878439 1.03362572688833 1759903399.09449
 0.868729357366104 0.0190187370219285 -0.263800627231819 0.908098661839964 1759903399.11428
  0.747949117284684 -0.0697024099380844  -0.227160479846356 0.784785443036593 1759903399.13448
  0.676105834328676 -0.0823737712744519   -0.27096530587086 0.733025739243131 1759903399.15444
 0.641476292206662 -0.118434018362043 -0.279722802087615 0.70976284502384 1759903399.17466
  0.761662933066406 -0.0990216329506955  -0.335840657426278 0.838286737685893 1759903399.19435
  0.69189715228784 -0.100832575187641 -0.356170715233687 0.784695135675678 1759903399.21423
  0.53682357322198 -0.130621339334043  -0.31536990834639 0.636160091601669 1759903399.2344
 0.410271122898017 -0.111057461579277 -0.347792213473767 0.549195391285665 1759903399.25433
  0.417861882956908 -0.0907014927825902  -0.305046375159592 0.525250992402003 1759903399.2746
  0.564985093763609 -0.0263654967731211  -0.349812391522106 0.665035341059091 1759903399.29434
 0.505610862355013 0.0451814936690638 -0.320425559829986 0.600296802335235 1759903399.31422
 0.330668413286373 0.0854444335339711 -0.229383440676371 0.411411124817741 1759903399.33433
 0.203679398848481  0.126217815108881 -0.233703266628815 0.334713984170243 1759903399.35434
 0.274316427220705 0.0752415805350604 -0.150134944276616 0.321638460351819 1759903399.37458
 0.488010715825785 0.0753327074468888 -0.187878863886614 0.528325603266961 1759903399.3944
 0.480187807347583 0.0643603997550701 -0.173986152018152 0.51477545830779 1759903399.4143
 0.316534303945071 0.0290400574115352 -0.060931283382399 0.323650910400515 1759903399.43435
  0.212295587738348  0.0366231118087488 -0.0517732385271108 0.221565198348729 1759903399.45436
   0.255741086013155 -0.00725616205195577  -0.0261400538127203 0.257175926898775 1759903399.47456
  0.429390164752553 -0.0128093465085046 -0.0515000514051536 0.432657194830888 1759903399.49429
   0.375097390377723 -0.00357568805922282  -0.0737563284412196 0.382296787585775 1759903399.5142
   0.15241510571601 -0.0316234975807518 0.00568326467703727 0.155764917574695 1759903399.5343
-0.00617418565334129  -0.0165739210991975  -0.0352618169814948 0.0394488423901232 1759903399.55442
-0.0332376198170363 -0.0251192767280766  0.0169946568801507 0.0449948418923502 1759903399.57476
   0.0528103110084532    -0.018801724452705 -0.000359297700938387 0.0560585665714251 1759903399.59442
 -0.0350736253230252 -0.00140240677312834  -0.0202981539664951 0.0405480084899963 1759903399.61454
 -0.236891824953553 -0.0361392152409212  0.0625757326830177 0.247668128609377 1759903399.63449
-0.425482707644352 0.0260350053597717 0.0384476856818108 0.428008855682613 1759903399.65446
 -0.444883386195335 -0.0405114170721618  0.0766056015006037 0.45324476875866 1759903399.67489
 -0.282093015711367 -0.0465957635824414  0.0455219210082644 0.289516631628041 1759903399.69447
 -0.287049635887809 -0.0409546720528802  0.0421083147322504 0.292998103741088 1759903399.71435
 -0.444738573432706 -0.0500537053038934   0.206142827833435 0.492739928949109 1759903399.73434
   -0.538458177158065 -0.000141450729047895     0.218322583260491 0.581035264780227 1759903399.75431
 -0.451812164504217 -0.0113938110490768   0.280163180314783 0.531747551501934 1759903399.77467
 -0.205157144891664 -0.0110393898401523   0.263283760830946 0.333960567949913 1759903399.79438
 -0.148337611075046 0.00868245173853705   0.252477545361529 0.292957919741772 1759903399.81422
 -0.303960656123691 -0.0123662830600762   0.364908607329173 0.4750824108834 1759903399.83421
-0.502373469691303 0.0591212212748511  0.329781045621454 0.603845973660409 1759903399.85426
-0.549534388355385 0.0502665763562041   0.29242506786235 0.624521571283171 1759903399.87471
 -0.38126505546696 0.0681069722697332   0.24094112582766 0.456129617879693 1759903399.8944
-0.382492530094042  0.135337064023355  0.132419560943778 0.426792217122977 1759903399.91435
-0.539405036225443  0.121020860923679  0.169221622551098 0.578134758877986 1759903399.9343
-0.676992084175904   0.11770279574066  0.147242444384901 0.702746446159952 1759903399.95433
-0.727514857125724 0.0983209533713385  0.178732400914146 0.755572728694628 1759903399.97479
-0.609858634731021 0.0533193424117776  0.174397372947987 0.636541397178824 1759903399.99442
-0.565417286739781 0.0749947781353729  0.157725362498404 0.591775476736746 1759903400.01426
-0.662631024793839 0.0343807065445348  0.250615889356643 0.709274440537551 1759903400.03398
-0.698272775152357 0.0556238717485133  0.265341462712193 0.749056056287855 1759903400.05428
-0.712367067480227 0.0636265761670774  0.246684337903321 0.75655029085443 1759903400.07463
-0.628046332933519 0.0645775501324848  0.236064892831608 0.674046800986365 1759903400.09441
 -0.61534001892678 0.0921956611463878  0.217915602905542 0.659265188536992 1759903400.1142
-0.715384646819696 0.0578316292952331  0.218507075588103 0.750243315421302 1759903400.13417
-0.782320075541919 0.0192949305641748  0.208654553896345 0.809897350164249 1759903400.15449
 -0.750361215350913 0.00947172542852767   0.220353332162222 0.782104377995986 1759903400.17475
   -0.65388196942262 -0.00241029559715285    0.226269068459798 0.691928559030868 1759903400.19448
-0.642438423996089 0.0561001792784985  0.213668035205351 0.679358806530226 1759903400.21433
-0.700562365581574 0.0353590046989264  0.241578070012328 0.741888031439671 1759903400.23429
-0.702974100803733 0.0206830152422419   0.23541115565486 0.741632513936036 1759903400.25436
-0.673930810071352 0.0563886600280977  0.218324369523503 0.710653184099691 1759903400.27462
-0.590470207801879 0.0487581403831834  0.219878344995922 0.631964325855001 1759903400.29441
-0.609933575080675  0.102737249812588  0.228115958213707 0.659250179295771 1759903400.31424
-0.621017216457291 0.0697653643798604  0.254850472584913 0.674891363539474 1759903400.33406
-0.644942037855773 0.0611983677414362  0.226022571108451 0.686135318328862 1759903400.35433
-0.608333301717651 0.0334989502052139   0.19202601961076 0.638800107898474 1759903400.37443
-0.529982156178595 0.0490858328513469  0.198214676010756 0.567960881258976 1759903400.3943
-0.583480120484677 0.0898571782962314  0.229615541210018 0.633440336777935 1759903400.41418
-0.594113463272579 0.0760105973812376  0.235080862513319 0.643437199791865 1759903400.43379
-0.628930761522079 0.0383373170040357   0.22347410106913 0.668553906960737 1759903400.45425
-0.620257221377996  0.049773869323433  0.203302430906008 0.654620758264868 1759903400.47435
-0.548512475943227 0.0473338156163503  0.184825464060609 0.580746828257711 1759903400.49439
-0.608463603843656 0.0747732879745504  0.205193545080817 0.646469947282754 1759903400.51418
-0.638939245605321 0.0568733858213837  0.171340916371488 0.663954555080772 1759903400.53304
-0.738263286053963 0.0134458144473534   0.15736594797871 0.754968549705606 1759903400.55421
-0.773797843552764 0.0446821144617761  0.134991082222646 0.78675420959746 1759903400.57495
-0.735952888903327  0.107656642982832  0.149013209006608 0.75856545131052 1759903400.59447
-0.751484446621114  0.193899130378718  0.184065001009604 0.797625018960496 1759903400.61434
-0.707333183003872   0.20409308591039  0.181117545941964 0.758141005976365 1759903400.63259
-0.760399792408081  0.158355290428364  0.192009506221351 0.800094927355668 1759903400.65407
-0.706016739308398  0.147839418089349   0.19707932488704 0.747767604287985 1759903400.67616
-0.591886986240142  0.114553948328674  0.213525425241653 0.639566977558062 1759903400.69478
-0.606018020598699  0.106331458953304  0.233399609591614 0.65805744294174 1759903400.71429
-0.536929628447174  0.106755570562371  0.214765156438791 0.588059733505616 1759903400.73231
-0.514563260101912 0.0550332785466649   0.18514059175321 0.549619003591608 1759903400.75304
-0.479847869233713 0.0741956801772152  0.176711086206761 0.516706671675011 1759903400.77694
-0.384273974557291 0.0831386906615344  0.133321600073762 0.415154403148033 1759903400.79611
-0.29414316497127 0.109950099396844 0.114343190604592 0.334190950048516 1759903400.81432
-0.161574988139826   0.12726903078471  0.113233455885649 0.234788625195242 1759903400.83221
-0.065329438795604 0.0837753633312879 0.0809273455277998 0.133549550088399 1759903400.85251
 0.113972240996798  0.123433724555367 0.0886256644073532 0.189947530826508 1759903400.87649
0.207158009668445 0.123788206906387 0.104582744552922 0.263012379170851 1759903400.89493
0.236776104469083 0.112318597726029 0.114861878668971 0.286132211073938 1759903400.91267
 0.320261752653314 0.0420107148261077  0.101629351172675 0.338616324757906 1759903400.93114
  0.402484331364421 -0.0834099646683975  0.0758449645321488 0.417975259847675 1759903400.95267
  0.46270801314691 -0.181372933977715 0.0412034789997231 0.498690859442727 1759903400.97628
  0.403483397587117  -0.249698523081949 -0.0149025228478857 0.474731808229638 1759903400.99505
  0.295517409862098  -0.289973875482947 -0.0246369677441091 0.414755793418039 1759903401.01417
  0.253324835188883  -0.318676248316313 -0.0793444357006478 0.414757233621174 1759903401.03225
 0.239311851151845 -0.390763858727634 -0.158415105204472 0.484831827489056 1759903401.05226
 0.282871565734026 -0.426951492032268 -0.229507865285304 0.561228794233881 1759903401.07508
  0.29805286106062 -0.383475383508866 -0.257998664896996 0.549956533584542 1759903401.09489
 0.273228397813316 -0.322303552048315 -0.192076720956812 0.464140930933821 1759903401.11415
 0.287897649559474 -0.235351759662571 -0.163942278707416 0.406389687548685 1759903401.13255
 0.321133294285022 -0.251889903209298 -0.180982393386775 0.446463596223864 1759903401.15262
 0.393733390399938 -0.207824931763911 -0.198249679416189 0.487360359864368 1759903401.17478
  0.42996562888404  -0.16931799383154 -0.202187793697482 0.504399572736775 1759903401.1947
  0.409452372983543 -0.0944762794428305  -0.136492038384311 0.441822463962074 1759903401.21432
  0.408544843382189 -0.0595880126077639  -0.168892319311321 0.44607649100023 1759903401.23297
 0.462405403253128 -0.134188909603351 -0.238904273342857 0.537494811360727 1759903401.25382
 0.493701570543818 -0.119815001470108  -0.28926498035999 0.584611926150485 1759903401.27465
  0.574896116738333 -0.0848416773262797  -0.284136524856128 0.646867235226571 1759903401.29485
  0.559105157047226 -0.0254624670044478  -0.231295410440163 0.605594320278385 1759903401.31436
  0.587359112867601 0.00900320713687431   -0.21002864231918 0.623845987245091 1759903401.33382
  0.611013755048391 -0.0734442001807484  -0.248325741886758 0.663624542555604 1759903401.3542
  0.614218695524752 -0.0722733867923552  -0.283833280797238 0.680477317519613 1759903401.37438
  0.682315172293255 -0.0689079411559639  -0.296989756309358 0.747332064111142 1759903401.39451
  0.691752447756915 -0.0344957158121689  -0.250551089303656 0.736537338998049 1759903401.41429
  0.673941315029102 -0.0248542135077606  -0.228315165087202 0.711998906348205 1759903401.43377
 0.629793814759904 -0.100730280013705 -0.260585365410057 0.688978643418913 1759903401.45415
 0.621523237118313 -0.107166918637713  -0.31088952911959 0.703155873220532 1759903401.47426
 0.697177080327147 -0.109022510533534  -0.33514413637524 0.781193561982704 1759903401.49447
  0.761193699182737 -0.0592485399113088  -0.298061579078171 0.819613898173826 1759903401.51427
  0.712997651755805 -0.0349774603556822  -0.305576276211142 0.776508811749934 1759903401.53305
  0.668427687928711 -0.0963025985726161  -0.292227755553365 0.735844294397475 1759903401.55413
 0.647661490815714 -0.102894725756246 -0.334263244726078 0.73606022039565 1759903401.57407
  0.665721716624075 -0.0821675419090826  -0.349980565342324 0.756586614371163 1759903401.59436
  0.76196919606634 -0.035819358484248 -0.355855548112393 0.841732293142291 1759903401.6142
  0.787484660513826 -0.0268267992323207  -0.360933362125539 0.866674483065512 1759903401.63309
  0.725724219042687 -0.0923744072036732  -0.316922628496177 0.797275752587694 1759903401.65406
  0.704002206038161 -0.0699377972053295  -0.314470619057485 0.774210676647467 1759903401.6741
   0.731783946562759 -0.00328051297833885   -0.289697784319933 0.78704721106948 1759903401.69439
 0.872692547799163 0.0475344731867077 -0.301866881907514 0.924648810910335 1759903401.71428
 0.866645228826521  0.111359904422221 -0.324650908660422 0.932133677888926 1759903401.734
 0.740460948406346 0.0503125719494774 -0.283837948858782 0.794592821653554 1759903401.75412
 0.711878492441602 0.0621288834328251 -0.301936311229251 0.775755452572693 1759903401.77427
 0.731431619574534 0.0514219335313937 -0.301211874089795 0.792694785181674 1759903401.79435
  0.88144589384736 0.0574974554184608 -0.314518912423002 0.937643305010875 1759903401.81428
 0.857378719827001 0.0846085026039706 -0.330554999709446 0.922780296580928 1759903401.83305
 0.758944037577076 0.0620540909279749  -0.24717321539933 0.800588134302236 1759903401.85403
 0.611652972658995  0.078415054246627 -0.264429471320854 0.670962908809505 1759903401.87418
  0.57838519555212 0.0417876534144922 -0.233144585013085 0.625005631920768 1759903401.89431
 0.687445257903048  0.023324843757186 -0.249195007878121 0.73158949069889 1759903401.91425
 0.689780517621042 0.0270978206880091 -0.273187145089194 0.742403307251238 1759903401.93312
  0.541519196515754 -0.0138384439226868  -0.147764171549461 0.561488016897037 1759903401.95321
 0.397936655986342  0.013860767809476 -0.150634922935291 0.42571890147089 1759903401.97406
 0.380553917830114 0.0154854857757686 -0.128708429214849 0.402028536793739 1759903401.99435
 0.482021007724003 0.0128885134949757 -0.125364767741226 0.498223534829683 1759903402.01425
 0.495570849434358 0.0567383507686513 -0.177341347433998 0.529395561718025 1759903402.03394
  0.261587839853133  0.0640438303976788 -0.0907565611448709 0.284194587495747 1759903402.05323
0.0049747443786443 0.0977748557178378 -0.113988378080422 0.150259844368621 1759903402.07398
-0.0335333860686153  0.0901792629310191 -0.0941297221669387 0.134600119016417 1759903402.09439
 0.0522980661086425  0.0440048855982622 -0.0757471721195869 0.102025250596773 1759903402.11422
 0.151203581681097 0.0255182385088151 -0.129422093187021 0.200658370906112 1759903402.13331
-0.00996019844792908 -0.00436281420823824  -0.0137553538939074 0.0175342368435119 1759903402.15367
   -0.24271665775667   0.0219407699009979 -0.00735182906675123 0.243817191204893 1759903402.17403
-0.321667372026098 0.0186767185178607 0.0220228973995221 0.32296087386964 1759903402.19435
  -0.243360405003266 -0.00365669268796607   0.0297023430174692 0.24519357109332 1759903402.21418
 -0.132552650493128  -0.004313859052989 -0.0238574940040057 0.134751603154967 1759903402.23322
   -0.27763634284791 -0.00638327321160927    0.115901394380818 0.300924937926843 1759903402.25284
-0.462931770652058 0.0183094227753263  0.141740235712363 0.48449081896483 1759903402.27413
-0.488198555020621 0.0339322694120832  0.153168117841509 0.512786213109115 1759903402.29444
-0.340514686245416  0.020739497547599  0.174666772057384 0.383260824463298 1759903402.31431
-0.179361012530331 0.0216196380238107  0.108674236604528 0.210826637941611 1759903402.33395
-0.329589429072475 0.0685673545264997  0.190082743408606 0.386603315046347 1759903402.35279
-0.521683686814303 0.0927626448688979  0.213975403620855 0.571440504974879 1759903402.37407
-0.596799406476376  0.067029596463275  0.158081745124892 0.621009127561194 1759903402.39419
-0.508084261679597 0.0108700306151705  0.144449963073527 0.528330925049839 1759903402.41423
-0.334109533743582 0.0223185605983423 0.0925245223702618 0.347401908350228 1759903402.43306
-0.494244757320807 0.0177837268847207  0.145434284558318 0.515504871175825 1759903402.45293
-0.616635779956712 0.0035669470074462  0.160706803887626 0.637243348376075 1759903402.47316
-0.655000450469923 0.0586159692652039   0.17569413218288 0.680683369895429 1759903402.49411
-0.622899573798978 0.0563855458953028  0.199282418039954 0.656427216806792 1759903402.51422
-0.461100867992473  0.095098583427818  0.156698127030491 0.496197595770327 1759903402.53303
-0.608211322292613  0.065353426545326  0.199572939615355 0.64344497911854 1759903402.55296
-0.706439413182012 0.0342577569847855  0.216374138494886 0.739626937191973 1759903402.57374
-0.748766787651932 0.0510122795775516  0.210353155374322 0.779424406170492 1759903402.59412
-0.655258767228051 0.0173229931211807  0.202814325483831 0.686147060579117 1759903402.61423
-0.517339636565395 0.0699140048118315  0.185522252704002 0.554027773562672 1759903402.63321
-0.580994627598181 0.0723269174593753  0.230789410163419 0.629324790653207 1759903402.653
-0.667812868133396 0.0369006043171976  0.259896384000799 0.717552654416536 1759903402.67387
-0.736454530813234 0.0368479272089812  0.264782613600044 0.783474873981169 1759903402.69405
-0.707731995798071 0.0262294084205444  0.278074135074796 0.760853326430271 1759903402.7143
-0.650464508752729 0.0535859960914283  0.274047741960605 0.707868420681234 1759903402.73302
-0.728951785909417  0.015985222961429  0.283510865712567 0.782307257099629 1759903402.75267
  -0.81543849904795 -0.0711132766402701   0.282451209871203 0.865895911644 1759903402.77389
-0.795241576548828 -0.060976643463694  0.216842896962091 0.826527772118322 1759903402.79316
-0.735573914507842 0.0237512612498269  0.229731578025301 0.770979704050205 1759903402.81419
-0.699591854649362 0.0927320262082944  0.235098819687594 0.743841009083883 1759903402.83297
-0.705227494779776    0.1050895759822   0.25758563303856 0.758116083935273 1759903402.85253
-0.758858255458454 0.0335746862064116  0.265510141630677 0.80466685450567 1759903402.87385
-0.727807617258619 0.0308671426369833  0.228489023528043 0.763455265295249 1759903402.89402
-0.599525858422233 0.0800183998486308  0.256185872901882 0.656860259648694 1759903402.9143
-0.586077233149321  0.132866032650131  0.284005325247249 0.664679569880815 1759903402.93309
-0.56261649695999 0.145093237928549 0.310823163356487 0.658938850898211 1759903402.95264
-0.638931307943982 0.0896190270916959  0.311043001646695 0.716248933794149 1759903402.97301
-0.676049663743034  0.049057961515342  0.245054011809652 0.720764386009128 1759903402.99412
-0.597563007850346 0.0621184139661205  0.221644355529274 0.640364322899712 1759903403.0142
-0.606071598422437  0.109504350831636    0.2237663556232 0.655275031703692 1759903403.03264
-0.624634790330062  0.085302400507793  0.221595809991213 0.668243835608481 1759903403.05212
  -0.703106514715026 -0.00135272819135486    0.220128865418717 0.736761371340004 1759903403.07227
-0.766311684905507 -0.026870005587766  0.230527593574805 0.800686310000611 1759903403.09415
   -0.74512437198415 -0.00256924440552287    0.235106699659533 0.781339933042199 1759903403.11412
-0.756315906027564 0.0648067846189098  0.261214246999283 0.802774284514856 1759903403.13225
-0.779301996359487  0.113315273425806  0.261602128926017 0.829811801904547 1759903403.15065
-0.833135085913075 0.0492566426247238  0.223828053428447 0.864082916000319 1759903403.17056
-0.839893181707151 0.0504099891217367  0.189314330571728 0.862439354065685 1759903403.19431
 -0.68257353835844 0.0376848586154617  0.150713535956231 0.70002953777427 1759903403.21429
-0.587812760172572 0.0686708627713464  0.174311796075645 0.61694742941889 1759903403.23218
-0.508344687280581   0.11890770801449  0.151427760908591 0.543584152533386 1759903403.25024
-0.448824256612625 0.0677988124838063  0.119984271047216 0.469506248730325 1759903403.27005
 -0.39055904388036 0.0928804026656063  0.110296553083709 0.416327353867379 1759903403.29423
-0.273211551365463 0.0869485597262777  0.110609598210882 0.307309432094704 1759903403.31422
-0.183290505744288  0.129555999964624  0.155345914046217 0.272969814510112 1759903403.33203
-0.12332964097563 0.176936478013197 0.145720582207534 0.260290617721414 1759903403.35017
-0.071989658590415    0.1252964357103  0.111241590816464 0.182363371522484 1759903403.36887
0.000870379963475136    0.143542856950268   0.0740571579552905 0.1615232862071 1759903403.39402
0.0492847096317163  0.115318807027924 0.0398617550091487 0.131591676675372 1759903403.41408
0.0830185341783099  0.117390023676856 0.0938807198863531 0.171715125257934 1759903403.43205
0.0831506299089289  0.082908027420258  0.078031858326965 0.140984889895795 1759903403.45023
  0.114459169481835 -0.0147640549838856  0.0526436746134038 0.12684729116083 1759903403.46999
  0.177104205805271 -0.0766299363279636 0.00835560035446133 0.193152434395291 1759903403.49393
  0.221030892846609  -0.180121250345389 -0.0535309065167883 0.29011011421711 1759903403.51424
  0.226471705131992  -0.152129376462089 -0.0340827109761416 0.274944379094426 1759903403.53221
  0.219409642981966  -0.132363351446124 -0.0684625330222694 0.265231534074192 1759903403.55055
   0.26501483494421  -0.155800831927054 -0.0943713678934221 0.321578477276923 1759903403.57022
 0.371982024832714 -0.176707926367245  -0.13245187865167 0.432596599845647 1759903403.59405
 0.445610304622557 -0.144857192827219 -0.145461864585699 0.490623383002011 1759903403.61417
   0.45695609147385   -0.10363110456767 -0.0754193994660436 0.474590730192649 1759903403.63243
   0.49547998086425 -0.0662400800687466 -0.0721975581021543 0.50507489250671 1759903403.65091
 0.569013774347983 -0.114705559480313 -0.120828210245308 0.592902603438805 1759903403.67061
 0.655862470118291 -0.152808665076537 -0.163231541899071 0.69292900365253 1759903403.69309
 0.703548918887459 -0.207055054594961  -0.21563859787267 0.764429775580155 1759903403.7141
 0.684039604661383 -0.133081958828334 -0.154793847247399 0.713850210938218 1759903403.73281
   0.66640197025271 -0.0950862989863164  -0.174287884648405 0.695348299017712 1759903403.75225
 0.680882081536518 -0.148870179594999 -0.244742768402504 0.738689218829861 1759903403.77223
 0.697588021775904  -0.18353237942581 -0.307194708514754 0.784016435645569 1759903403.79382
 0.742050084822424 -0.195790182014097  -0.30801804157666 0.826950565448021 1759903403.81426
  0.79238549033422 -0.129088967205996 -0.246702456619265 0.839881437375832 1759903403.83378
  0.770705174443352 -0.0751165149242278   -0.21921074484441 0.804787119295134 1759903403.85254
 0.785350343006522 -0.146600445625683 -0.243811123851283 0.835290797286631 1759903403.8727
 0.784641654560767 -0.153116094237807 -0.265299433578767 0.842312800474808 1759903403.89308
 0.811857011576328 -0.140931090746993 -0.290822425998603 0.873814089522763 1759903403.91416
  0.863556006164602 -0.0535652892343132  -0.264783475551461 0.904825123943199 1759903403.93313
 0.826104763514786 0.0113487224004165 -0.273102584771174 0.870151076314129 1759903403.95261
  0.774553553459351 -0.0204859743169944  -0.314126415427951 0.83607911538911 1759903403.97278
  0.769773050318686 -0.0532248763038817  -0.349985553319631 0.847274054829337 1759903403.99317
  0.835421988092394 -0.0569601287882857  -0.352874364530226 0.908677429896021 1759903404.01409
  0.905495210415004 -0.0341129220552928  -0.318794289068519 0.960580588122811 1759903404.03383
 0.858631206923856 0.0119034987177584 -0.284547464913204 0.904630589010659 1759903404.05301
  0.816506445054105 -0.0117678237840194  -0.240716993966244 0.851331855198458 1759903404.07382
  0.751377512378743 -0.0538290166706484  -0.249229381239338 0.793461412809181 1759903404.09399
  0.728561963899438 -0.0378148875705136   -0.26890323366666 0.777522636351742 1759903404.11422
  0.810865717615642 -0.0349009571127403  -0.259737527627265 0.852164815085462 1759903404.13405
  0.826801407573287 -0.0148712849479878  -0.264382696480267 0.868170451512461 1759903404.15287
  0.770268781410074 -0.0805255568973267  -0.290187465531758 0.827047233282556 1759903404.1727
  0.769035588384485 -0.0606124314975558  -0.320943999664394 0.835520588600003 1759903404.19384
  0.740920102467171 -0.0771062708410956  -0.313965419150463 0.808382495892452 1759903404.21415
  0.774279146998273 -0.0596123355601715  -0.297205632367324 0.831500460576044 1759903404.23298
 0.860160181105234 0.0101286751320845 -0.327083305239076 0.920305175354914 1759903404.25276
  0.772164514865695 0.00521167523213182  -0.244593705680118 0.809994617534482 1759903404.2724
  0.670629465718802 -0.0137935573894965  -0.240220303731025 0.712488552076712 1759903404.29298
   0.623783113540002 0.000958286683803005   -0.227124867012627 0.663846364956931 1759903404.31413
 0.657166894809108  0.026217603517369 -0.213593506112585 0.691504068115804 1759903404.33371
 0.733209720893451 0.0637761188779346 -0.262416522323674 0.781361836373032 1759903404.35259
 0.569546871745604 0.0504179844787213 -0.234642969087805 0.618047680374614 1759903404.37252
 0.368129221730529 0.0635615190881643  -0.26773507709737 0.459609902100743 1759903404.39297
 0.343809864325651 0.0552253074637451 -0.310920105693136 0.466825844953253 1759903404.41423
 0.391444652410353 0.0196250959701483 -0.260822239172557 0.470789019348886 1759903404.43323
 0.523744707835913 0.0396949443398982 -0.318568999364734 0.614304822501436 1759903404.45286
 0.351536311019396  0.109522997278316 -0.231783398997082 0.435082301350666 1759903404.47247
0.196826230883196 0.141523897286467 -0.22961923565059 0.333908029324838 1759903404.49373
 0.144676071322218  0.146070488198428 -0.234214905126074 0.311647837982192 1759903404.51414
 0.255736237343186  0.114035304304934 -0.179560594738666 0.332636559778496 1759903404.53383
 0.433993056606281 0.0688425979744425 -0.206747942257739 0.485627416962987 1759903404.55281
 0.359400691307979 0.0819662476061971  -0.05228204973039 0.372318056751622 1759903404.57245
  0.206563646288822  0.0391949425910863 0.00513605065679382 0.21031205982825 1759903404.59377
   0.169792868100715  0.00684079378973008 -0.00289061841214301 0.169955200545159 1759903404.6141
 0.246634165735806 -0.055585147827118 0.0372081237955746 0.255543665238539 1759903404.63387
  0.269811866027635  -0.089005051126044 -0.0139528640212768 0.284455663662477 1759903404.65289
 0.0811659995953911 -0.0395811061026934 0.00975276610872114 0.0908278585974761 1759903404.67285
 -0.154686077730138 -0.0122455893171739  0.0238421314648107 0.156991032654876 1759903404.69313
 -0.277440958477207  0.0268048677048753 0.00676506325777361 0.278814907159408 1759903404.71425
 -0.230736916537763 -0.0230664690646799  0.0450147260360668 0.236215817016068 1759903404.7341
 -0.111263866732271 -0.0372361519300224  0.0327434238224983 0.121812605482323 1759903404.75399
 -0.275328020373501 0.00159832165913965  0.0989686146155104 0.292579664559638 1759903404.77298
 -0.426377048551126 -0.0102618617186926   0.139325779950712 0.448680695256635 1759903404.79388
-0.507254467028702 0.0318174853178563  0.124412136814964 0.523256941166947 1759903404.81417
-0.402679272117452 0.0123787442970195  0.175547915777673 0.439455231209388 1759903404.834
-0.246659972833309 0.0368344968486593  0.153283124473713 0.292734758108165 1759903404.85386
-0.347683369756351 0.0811210410031029  0.197536667328245 0.408025837218316 1759903404.87277
-0.500464576765062 0.0893296597699772  0.248501263751082 0.565859928601714 1759903404.89387
-0.62956346713559 0.123676001204352 0.208865726085073 0.674737581552065 1759903404.9141
-0.601402445151126 0.0810580846506222  0.209601604227539 0.642018805500071 1759903404.93407
-0.434163450775109 0.0954392140655591  0.155578995413694 0.470968543943581 1759903404.95312
-0.565631446123636  0.112844649036024  0.178070636957747 0.603640621070614 1759903404.97293
-0.732495657369178  0.090887156381191  0.236695747689574 0.775135626993167 1759903404.99401
-0.803198324499006 0.0853061303177979  0.206038397687249 0.833580533403544 1759903405.01421
-0.808133791510266 0.0748007335001034  0.229441083731187 0.843397050988829 1759903405.03418
-0.65253095430977 0.128687281825908 0.215237526878683 0.699059550977606 1759903405.05389
-0.684366535414631  0.152005362148283  0.238832550439352 0.740610675096317 1759903405.0729
-0.791695910705105  0.156803578441697  0.324439135990892 0.869845118513534 1759903405.09396
-0.807366621413987  0.185354102526339  0.274499970171569 0.872666739552375 1759903405.11408
-0.744451031988963  0.181807705678258  0.303881867569648 0.82438193230507 1759903405.13405
-0.581065909573811  0.258723266391523  0.320498437712365 0.712246143139579 1759903405.15395
-0.612033857048334  0.259123621520419  0.317956275975905 0.736767729230714 1759903405.17282
-0.717455615432542   0.23613853081753  0.340478307341233 0.828510376291269 1759903405.19304
-0.725565035252452  0.232426474436958  0.296067990568328 0.817387876983292 1759903405.21405
-0.698626706039889  0.179704613920456  0.290505117920453 0.777667182150836 1759903405.23388
-0.541952206944711  0.230944804353749   0.29856949202308 0.660447907739251 1759903405.25278
-0.567872312174251  0.221696252207553  0.302557469722011 0.680565363254398 1759903405.27231
-0.664324309497165  0.184497653114487  0.301251703754676 0.752408639775444 1759903405.29251
-0.675522766378554  0.145715021291159  0.281341156825486 0.746134519942296 1759903405.31406
-0.676123233366136  0.129692018176341  0.286561454889056 0.745707793780019 1759903405.33386
-0.588495855453361  0.155803442988335  0.307644395174681 0.682090286263628 1759903405.35268
-0.637645630024732  0.160085846826844   0.28079288993858 0.714887456096387 1759903405.37239
-0.696739502799045  0.111427515787997  0.260789310617431 0.752245365932991 1759903405.39264
-0.690302141758973 0.0643379594510936  0.215581089402821 0.726038308942072 1759903405.41415
-0.656971718425356 0.0876677030872878  0.210791937907435 0.695507516898371 1759903405.43406
-0.551351900249087   0.15527309319284  0.234665324260038 0.619004414998811 1759903405.45387
-0.55482579770864 0.189128224880428 0.236339777878431 0.632026614832854 1759903405.4726
-0.621170050435524  0.127151049899616  0.238505622402048 0.677424942680762 1759903405.49255
-0.683151850852183 0.0844812563396908  0.211053224870182 0.719984026019744 1759903405.51418
-0.710205920646935  0.072474482064027   0.17770209456356 0.735678621875534 1759903405.53411
-0.725267988391243 0.0758540685991417  0.187202303184943 0.752869309392985 1759903405.55373
-0.774328638596972 0.0945644242656515  0.134249400103615 0.791549222926985 1759903405.57233
-0.863297308985044 0.0321300657327265   0.06795492253933 0.866563590466467 1759903405.59212
 -0.94268062340084 0.0454373496641817 0.0380624042201159 0.944542247384899 1759903405.61421
-0.846790423328406 0.0115863648797307 0.0125924629733008 0.84696330204771 1759903405.63407
-0.750183427877067 0.0491438906193629 0.0597455078641763 0.754161669111168 1759903405.65238
 -0.73859508686725  0.113458598709208 0.0732119952535079 0.750836568245379 1759903405.67077
-0.729328779370757   0.10355344573244 0.0846716732810847 0.741493814402871 1759903405.69041
-0.703711505301996 0.0976981468174723 0.0626572347235068 0.713218577751005 1759903405.71415
-0.483660186281278  0.128017744003959  0.069809854166528 0.505162483080697 1759903405.73414
-0.311732136759853  0.119654689009952 0.0916892014972718 0.346267352434704 1759903405.75236
-0.194225641808201  0.110510712683189  0.079308505440948 0.237120341997119 1759903405.77075
-0.0297998307491073  0.0565555654779966   0.089958102198286 0.110358606598347 1759903405.79019
0.0398896821441029 0.0262531519642479 0.0848458502174528 0.0973613528497725 1759903405.81408
 0.208777197998877 0.0518393312915983  0.070538616144011 0.226386684768638 1759903405.83428
0.353930709412043 0.096035754269465 0.105506385489522 0.381603734968725 1759903405.85272
0.434468164335448 0.136049776618824 0.102534489304307 0.466674885799462 1759903405.87208
 0.514910147417881  0.028001219038094 0.0749339978560632 0.521086971835044 1759903405.89061
  0.596182145530622 -0.0538910755236712   0.057418535504429 0.601360363584155 1759903405.91404
  0.549627389924965  -0.154103683642118 -0.0175056109913776 0.571090762912499 1759903405.93413
   0.50931745470893  -0.165113863532134 0.00629204858203866 0.535449761861045 1759903405.95286
  0.411623212652091  -0.202053565302493 -0.0348030275739803 0.459859286275479 1759903405.97214
 0.327653451180695 -0.285868389538907 -0.111018077679304 0.448778936426161 1759903405.99186
 0.269122944540058 -0.316014586967907 -0.184298812543072 0.454156834980158 1759903406.01411
 0.308854173060605 -0.294803705420171 -0.244776727988796 0.492154215171743 1759903406.03432
 0.372915671537693 -0.223279821409106 -0.195852685874157 0.476737088226846 1759903406.05375
 0.363042648014558 -0.141588458886406 -0.170934633972351 0.425518395675805 1759903406.07247
 0.392347399868241 -0.169237839058031 -0.179652912446377 0.4635224884543 1759903406.09221
 0.447939158873472 -0.196404537393438 -0.226895939372485 0.539171586477558 1759903406.11417
 0.479781530243749 -0.154445677821567 -0.225243517738385 0.55206741114103 1759903406.13438
 0.604498199537132 -0.107472623293823 -0.172930423488378 0.637866262918145 1759903406.15408
  0.605713603696868 -0.0434429253840135  -0.164730228524104 0.629215627316241 1759903406.17372
  0.601205901853344 -0.0570339008941598  -0.187773138728093 0.632424030142987 1759903406.19279
  0.650999851536631 -0.0997417708702175  -0.247173416398451 0.703451437791639 1759903406.21419
 0.693575467287375 -0.078639767423917  -0.25721353124642 0.743901836601874 1759903406.23421
  0.827947277772981 -0.0642357270179916  -0.260874863609894 0.870447366507993 1759903406.25416
  0.812361612004451 -0.0231072177483599  -0.257029610388411 0.852367029387552 1759903406.27298
  0.815534981424383 -0.0966354590312521  -0.233852973072714 0.853886954393845 1759903406.29289
 0.802018432694026 -0.176462255902551 -0.253960010772649 0.85957441865777 1759903406.31417
 0.810125722765388 -0.218295003955506 -0.268621693434971 0.880973330823328 1759903406.33424
 0.880192305065759 -0.203500473440107 -0.259748079510323 0.940010638980551 1759903406.35414
 0.899970381130678 -0.119808083593006 -0.261269762113121 0.944755287046002 1759903406.37368
 0.889763884183646 -0.157868026467897 -0.248671058028991 0.937250968780345 1759903406.39361
  0.84105620492548 -0.195808234819773 -0.265202542016814 0.903354190203968 1759903406.41403
 0.853786717253935 -0.170094504273943  -0.32078042088826 0.927784445530694 1759903406.43434
 0.859414044006093 -0.143572373033538 -0.291824828815364 0.918894583750772 1759903406.45419
  0.927118312503728 -0.0576328250160617  -0.294919448096234 0.97460114342457 1759903406.47393
  0.853494970030731 -0.0839911115053477  -0.274293706598994 0.900413909354736 1759903406.49284
 0.817039083234097 -0.138568714870463 -0.276719767148681 0.873686432196177 1759903406.51416
 0.842478685202169 -0.157563702025208 -0.296343428889444 0.906871591275091 1759903406.53478
  0.84636562121108 -0.174493971882409 -0.264179694058887 0.903644743106694 1759903406.55424
 0.967874282574333 -0.134997702804954 -0.280774773995961 1.0167789732011 1759903406.57398
 0.833828488505858 -0.158631760687859 -0.261302880968383 0.888095253531552 1759903406.59367
 0.698277315557618 -0.203195182497119 -0.270798355600281 0.776022706502977 1759903406.61411
 0.584191055417158 -0.194352098529117 -0.346259450046882 0.706362183429191 1759903406.63427
 0.570132818568346 -0.183992919441099 -0.371019161572775 0.704670166437681 1759903406.65418
 0.695630470272632 -0.144676575278933 -0.422452405406598 0.826619076382819 1759903406.6739
  0.526870716433318 -0.0736647310999472  -0.342855005898128 0.63290504778552 1759903406.69271
 0.376095158396496 -0.047565694927473 -0.329032947143459 0.501968867370407 1759903406.71407
  0.346128646482203 0.00720041357953027  -0.298046942455574 0.456824764848005 1759903406.73425
    0.419246831600625 -0.000238985816847375    -0.237275936515034 0.481734193275161 1759903406.75424
  0.591316784197789 -0.0179500243180425  -0.262866462544456 0.647361197306162 1759903406.77401
  0.478846198451729 0.00647922202527061  -0.217213015827956 0.525848986244911 1759903406.79383
 0.372948511043004  0.017008318799647 -0.164819645432314 0.408099730847764 1759903406.81414
 0.309970542780752 0.0103587888283711 -0.181992382987702 0.359597371185229 1759903406.83426
  0.422503760459225 0.00585521311547677  -0.132413246448424 0.442805802759883 1759903406.85436
   0.59087115728497 -0.0141036617217372  -0.166882756453622 0.614147777156931 1759903406.87411
  0.455474762964567 0.00750104992014634  -0.109194506499939 0.468440994894019 1759903406.8938
  0.296828169000733 -0.0207859773561167 -0.0624374549341942 0.304035285033886 1759903406.9141
  0.181759056370925 -0.0368711544235498 -0.0834116068716402 0.203355188678046 1759903406.93435
  0.242066336569291 -0.0625948229665477 -0.0470614354361139 0.254418949505728 1759903406.95455
  0.321794277185614 -0.0525878749600315 -0.0756824411447859 0.334731046244381 1759903406.974
  0.152371225192248 -0.0178121645965331 -0.0531192015614442 0.162345043191118 1759903406.99315
  -0.01741499896647 -0.0386759088527853 0.00295919382806959 0.0425189950810598 1759903407.01404
  -0.205738514446503  -0.0377317991087492 -0.00890604059285507 0.209359362221226 1759903407.03413
 -0.200593907964445 -0.0848762592715407  0.0226220703553823 0.21898322622416 1759903407.05417
 -0.144632955092289 -0.0873486091935187 -0.0147211833933114 0.169603020218596 1759903407.07398
 -0.280539205455528 -0.0417981520005113  0.0449236277745821 0.28717148820993 1759903407.09312
 -0.484171666981371 -0.0668168044551149   0.154661850017338 0.512647028974029 1759903407.11416
-0.604398279289184 -0.043574942991786  0.133711581659234 0.620543989362783 1759903407.13412
 -0.516512235829027 -0.0708398555147368   0.155947513955239 0.54417166592838 1759903407.15418
 -0.322108459591446 -0.0517531492911994   0.127652358151279 0.350324667620643 1759903407.17407
 -0.331823669083853 -0.0188262097311182   0.138548797411058 0.360079356255202 1759903407.19387
  -0.47145398415532 -0.0127142458554541   0.237734436050396 0.528155444265982 1759903407.21417
-0.613083453072694 0.0229958492493476   0.21760004875686 0.650960759749176 1759903407.23388
-0.496117559151238 0.0282363154712989  0.247087069088586 0.55496120740135 1759903407.25415
-0.264795220537108 0.0793479055934893  0.213660356918704 0.349375653215843 1759903407.27392
-0.258484746852185  0.106901173605338  0.223839214933711 0.358254405996042 1759903407.29287
-0.433331276625548  0.110265672176732  0.294239146278964 0.535267399498127 1759903407.31405
-0.616580148841601  0.113524054203608  0.228704944406222 0.667356533214598 1759903407.33403
-0.588281369214893 0.0567064667425186   0.21853612552732 0.630117949987352 1759903407.35425
-0.411417256441919 0.0755779742919713  0.180172750590573 0.455454069200888 1759903407.37405
-0.424209769788176 0.0938183110233442  0.189139198938475 0.473845376512316 1759903407.39379
-0.535863559616851 0.0407411046608565  0.268562694696732 0.600779088448491 1759903407.41412
-0.634081932102302 0.0262784158661381  0.237801100312616 0.677716618557426 1759903407.43426
-0.675114462091882  0.013311450135388  0.261726322490814 0.724194310606541 1759903407.45429
-0.556313141778333 0.0218854185073929  0.235007810624933 0.604311140318667 1759903407.47405
-0.616447711189078 0.0375420157874768   0.20269648270014 0.650002344363963 1759903407.49322
 -0.765558795929858 -0.0146563604202998   0.225196414236045 0.798128124996931 1759903407.51407
 -0.805218559474933 -0.0269307193940333   0.185043464116457 0.82664579826077 1759903407.53429
 -0.827397553644599 -0.0199099277223774   0.205692108683837 0.85281437638784 1759903407.55442
-0.709974268430022 0.0364254895548489  0.213205112782154 0.742190473017881 1759903407.57407
-0.710397946166406  0.106158602492382  0.209028619267152 0.748082785842125 1759903407.59379
 -0.83752420163427 0.0634990547496215  0.247741496389344 0.875702442220214 1759903407.61403
-0.853315084062913 0.0980912866060117  0.219065872683704 0.886430138122566 1759903407.63417
-0.82780519666097   0.1125663005723 0.190849701162705 0.856945869980907 1759903407.65422
-0.749219141504446  0.154452132813102  0.173504327732462 0.784403298736734 1759903407.67409
-0.71371483317405 0.179052010126535 0.184417513749721 0.758589681448834 1759903407.69372
-0.777032545222393  0.120705392937423  0.250889911901503 0.825406031061629 1759903407.71404
-0.772002702314893  0.121714738099005  0.241715006772838 0.818064052719101 1759903407.73425
-0.719176578853615   0.11128244109521  0.229930087762946 0.763194980674254 1759903407.75447
-0.668926514475849  0.134901713680576  0.251500293663306 0.72726443047594 1759903407.77421
-0.664096040211575  0.188290014892396  0.257841243422251 0.736857372320047 1759903407.79395
-0.717391383424395  0.118039988708006  0.234151261521216 0.763813229276457 1759903407.81408
-0.721463720252969  0.100750824654103  0.169742299696254 0.747979329003087 1759903407.83431
-0.691573011754199 0.0799402248636317  0.133391660168239 0.70884201705349 1759903407.85568
-0.599360273445191  0.105634867950836  0.160273026269216 0.629348000442345 1759903407.87429
-0.616416038143361  0.167491312144739  0.179398072331691 0.663480022367404 1759903407.89397
-0.680650210105658  0.121811011509175  0.202293629739408 0.720448015942101 1759903407.91401
-0.688916083052422  0.113229897370204  0.192488672582431 0.724208718684956 1759903407.93459
-0.672598455012504  0.144690854751222  0.181179657751643 0.711442333233586 1759903407.95511
-0.636089701700601  0.181290850509708  0.215661808429481 0.6956913803571 1759903407.9746
-0.673685814907081  0.228499323078886  0.203912135297703 0.740030186395254 1759903407.99403
-0.729086871357625  0.179947428973211  0.149634963697914 0.765727997098836 1759903408.01379
-0.784292459015494  0.167732081146458   0.12515420765013 0.81173412396352 1759903408.03608
-0.683468706327476  0.160954066741309   0.13308122596824 0.714665164139633 1759903408.05608
-0.570893659805058  0.191312572689512  0.169498078107408 0.625499536176325 1759903408.07482
-0.553680117183236  0.237944628134307  0.194683239676909 0.633309467822101 1759903408.09408
-0.477173471145198  0.185696213182891  0.201520496120105 0.550261860855099 1759903408.11407
-0.493127592123386  0.145485978607084  0.189462142527874 0.547938769878462 1759903408.13669
-0.410242236236175 0.0769531597827263  0.162832468886356 0.44803447871367 1759903408.15701
-0.330499769765685 0.0754119022182418  0.188055816678971 0.387662279565782 1759903408.17598
-0.338082020331341  0.109050440096566  0.193492203202761 0.404512896774422 1759903408.19424
-0.329133938961402  0.055436848031906  0.186268346177428 0.38222806108871 1759903408.21401
 -0.326776975200841 0.00321191264779999   0.156545451893735 0.362353399891435 1759903408.23687
 -0.171114103754896 -0.0206042634500724   0.110410693971301 0.20468290969054 1759903408.25817
 -0.0399153723245752 -0.00490902733797542     0.11860004781179 0.125233010177721 1759903408.27641
0.0761584031732612 0.0351564434189978  0.143702076066121 0.166392200999588 1759903408.29496
 0.217836982556462 0.0383142218737997  0.138851996373736 0.261152843109301 1759903408.31413
 0.331619008255668 0.0226916126730316   0.11819107490725 0.352782094372584 1759903408.33683
 0.433001837486776 0.0230106912251327  0.136399619995766 0.454560160498665 1759903408.35802
  0.459996335243375 -0.0004287719556857   0.169550905407212 0.490249244575788 1759903408.37623
  0.425055325143689 -0.0446081196693863   0.139482799509376 0.449574649121165 1759903408.39482
  0.38281202445668 -0.142477945431009 0.0712997724100008 0.414642820447407 1759903408.41412
   0.338975800718513   -0.225199057918188 0.000923581148686195 0.406964448277899 1759903408.43596
  0.258364826895187    -0.2508441264289 -0.0639342267580158 0.365735895000208 1759903408.45797
  0.217140526352271  -0.211121226141119 -0.0690897600236792 0.310637369374646 1759903408.47619
 0.163492915881647  -0.18904544651127 -0.083856284010095 0.263628509001038 1759903408.49449
0.0995339520542762 -0.200944095334781 -0.113141486909153 0.251170326912775 1759903408.51405
0.0546590344046664 -0.226048291202725 -0.163960629323675 0.284549693315488 1759903408.53465
 0.120431649840111 -0.218569471989204  -0.19563239281813 0.317093723508678 1759903408.55654
 0.197792249998576 -0.152830687224977 -0.171384755597241 0.303070499336844 1759903408.57605
  0.213732038941562 -0.0934155835222802  -0.154128013916296 0.279577002610564 1759903408.59447
  0.290054313025085 -0.0541232144227307  -0.155160899280167 0.333370261885089 1759903408.61399
  0.293188912015391 -0.0650531579507409  -0.198997525514297 0.360266105329027 1759903408.63423
  0.361155070297624 -0.0654452378446281  -0.235434940028548 0.436056962958359 1759903408.65607
 0.458294763479269 -0.110504190125984 -0.224960604852915 0.522352888384575 1759903408.67575
  0.45432278174427 -0.094630404797455 -0.205578079621528 0.507569158189165 1759903408.69441
 0.503845395999998 -0.100310283952211 -0.231114172257053 0.563325924092821 1759903408.71413
 0.518704515134183 -0.137239650626067 -0.272700215485253 0.601875820456559 1759903408.73418
 0.614511529590582 -0.110552816818431 -0.304589753296729 0.694709481092354 1759903408.75613
   0.66781025762702 -0.0934591201321636   -0.28009245928539 0.730175960352217 1759903408.77588
  0.638984742468064 -0.0380004965545527  -0.253140848159122 0.688350076525085 1759903408.7946
  0.641037980615544 -0.0385374738006878  -0.248997312194507 0.688777533720927 1759903408.81419
  0.614621230185492 -0.0664659819338604  -0.262763279912071 0.671730246914123 1759903408.83464
  0.623245866518932 -0.0630454123903345   -0.30021461048357 0.694650233213956 1759903408.85589
   0.63606773376384 -0.0346221510280742  -0.289221777455819 0.699592804302604 1759903408.87498
  0.647215464045748 0.00581359419509864  -0.285011289440847 0.707215023798386 1759903408.89433
  0.652729156007484 -0.0218993854486056  -0.349617050050348 0.740788104569165 1759903408.91407
